ply
format ascii 1.0
element vertex 1254
property float x
property float y
property float z
property uchar blue
property uchar green
property uchar red
end_header
1.010528 -0.393774 -0.232244 160 124 108
1.010970 0.017084 -0.342520 114 89 79
1.000789 0.076469 -0.356146 77 44 35
1.024136 -0.300995 -0.262244 131 103 96
1.024136 -0.300995 -0.262244 131 103 96
1.011138 0.005671 -0.340938 109 81 74
1.000669 0.070976 -0.356272 78 42 34
1.000669 0.070976 -0.356272 78 42 34
1.000814 -0.026743 -0.330478 98 61 53
1.011262 -0.071399 -0.322742 32 19 17
1.009482 -0.398322 -0.235929 72 42 31
1.010314 -0.186988 -0.292476 61 30 21
1.004428 -0.110728 -0.311475 41 28 30
1.000963 0.056025 -0.355456 130 96 83
1.010192 -0.197711 -0.290432 58 30 19
1.010690 -0.208109 -0.288564 64 34 23
1.001748 0.156044 -0.383765 127 91 83
1.008951 -0.382690 -0.243029 167 133 120
1.001864 0.150353 -0.382821 135 100 86
1.006446 -0.179508 -0.297996 141 108 93
1.002063 0.079559 -0.366660 132 96 80
1.001853 0.144000 -0.384075 61 32 28
1.001538 0.114245 -0.376157 119 88 79
1.008662 -0.212613 -0.292242 107 78 69
1.007045 -0.395704 -0.243715 124 101 99
1.010267 -0.280600 -0.275216 66 34 21
1.013914 -0.575341 -0.198813 114 77 43
1.000025 0.084528 -0.370044 135 100 86
1.001798 0.093606 -0.373232 124 94 83
1.009666 -0.301620 -0.271339 62 33 26
1.001873 -0.405328 -0.242554 116 102 106
1.009769 -0.207507 -0.297780 60 31 24
1.009870 -0.273795 -0.280688 127 92 82
1.000082 0.036722 -0.361275 138 103 90
1.000750 0.082193 -0.373524 68 41 31
0.998182 -0.020825 -0.346680 87 48 39
1.008593 -0.196383 -0.303923 135 103 98
0.999705 0.009877 -0.356509 125 89 81
1.001291 0.049512 -0.367474 79 47 36
1.001047 0.038030 -0.364799 78 46 35
1.008671 -0.376857 -0.257490 72 39 23
1.009128 -0.268511 -0.286419 61 32 25
1.001047 -0.305306 -0.274641 86 63 61
1.001001 -0.002413 -0.354804 139 103 93
1.002846 0.182328 -0.404276 107 75 64
1.091574 -0.683407 -0.199899 122 66 31
1.008119 -0.397366 -0.253477 73 39 26
0.999437 -0.046593 -0.344066 145 109 91
1.002389 -0.004651 -0.357484 130 91 77
1.001736 -0.046757 -0.350873 92 54 42
1.001888 -0.402166 -0.257914 66 48 49
1.000466 0.178426 -0.410113 95 73 67
1.000466 0.178426 -0.410113 95 73 67
1.007830 -0.376138 -0.266693 74 38 28
1.007836 -0.386862 -0.264754 71 39 26
1.008645 -0.397301 -0.263050 72 41 26
1.003299 0.190317 -0.417268 19 15 26
1.006002 0.153765 -0.408962 80 58 53
1.003351 -0.364895 -0.272688 160 133 119
1.003351 -0.364895 -0.272688 160 133 119
1.008598 -0.392840 -0.268153 159 124 114
0.992044 -0.355023 -0.273588 35 20 18
1.006927 -0.397838 -0.267071 149 118 109
1.001329 0.050354 -0.384999 83 48 38
0.999791 -0.367998 -0.275797 61 34 24
0.999791 -0.367998 -0.275797 61 34 24
1.002830 -0.001857 -0.372768 120 80 68
0.993979 0.163166 -0.416348 80 52 41
0.996876 -0.407734 -0.268062 80 64 71
0.998420 -0.358669 -0.281510 24 19 18
0.996930 0.032845 -0.384609 77 43 37
0.998160 0.161828 -0.420058 106 79 65
0.993053 0.155512 -0.420512 30 17 15
1.004651 -0.048094 -0.372747 48 38 50
0.986315 0.097585 -0.406842 115 87 76
1.005337 -0.079224 -0.367626 45 31 42
1.000206 -0.383188 -0.288458 49 27 21
1.005376 -0.060347 -0.374600 137 105 99
1.005376 -0.060347 -0.374600 137 105 99
0.991335 -0.013427 -0.382801 25 21 32
0.984395 -0.003848 -0.383964 133 97 81
1.009511 -0.120788 -0.361246 148 108 90
0.987191 0.000926 -0.386809 77 45 40
1.003678 -0.079644 -0.372556 119 88 73
1.003678 -0.079644 -0.372556 119 88 73
1.003678 -0.079644 -0.372556 119 88 73
1.007737 -0.214031 -0.339238 50 40 52
1.004064 -0.087751 -0.374764 40 29 25
0.982238 0.141613 -0.430795 104 80 74
0.982461 0.133625 -0.429311 106 81 77
0.982703 0.125402 -0.427820 101 79 74
1.011978 -0.399022 -0.302990 49 27 21
0.972145 0.097323 -0.419865 103 74 67
1.010586 -0.374799 -0.314314 31 27 33
1.010586 -0.374799 -0.314314 31 27 33
0.979564 -0.086136 -0.381292 48 32 25
0.960001 0.213559 -0.452648 36 30 35
0.960001 0.213559 -0.452648 36 30 35
0.994856 -0.259380 -0.341619 64 42 36
0.994856 -0.259380 -0.341619 64 42 36
0.962328 0.159164 -0.439566 92 63 56
0.962328 0.159164 -0.439566 92 63 56
0.969501 0.157797 -0.442633 107 78 69
0.969501 0.157797 -0.442633 107 78 69
0.962387 0.093484 -0.424402 123 88 74
1.025465 -0.411400 -0.314830 44 25 20
0.992433 -0.281869 -0.339968 43 29 23
1.032657 -0.614499 -0.272118 139 95 54
0.976628 -0.083883 -0.393190 111 88 86
0.976628 -0.083883 -0.393190 111 88 86
0.949248 0.192182 -0.456326 92 71 63
0.948866 0.175303 -0.452896 115 84 75
0.945656 0.173356 -0.451521 108 72 64
0.945656 0.173356 -0.451521 108 72 64
0.955903 0.032032 -0.419319 77 48 44
0.947686 0.166656 -0.451780 32 21 24
0.947597 0.166770 -0.451790 32 21 24
0.947597 0.166770 -0.451790 32 21 24
0.966514 -0.314013 -0.335178 160 119 104
0.972695 -0.035086 -0.408816 31 22 18
0.972695 -0.035086 -0.408816 31 22 18
0.953467 0.036130 -0.423463 125 94 79
0.953467 0.036130 -0.423463 125 94 79
0.946588 0.133435 -0.446525 31 18 26
0.971710 -0.091134 -0.398052 50 31 23
0.971394 -0.284359 -0.348830 104 90 96
0.947003 0.099281 -0.439870 44 31 33
0.944208 0.130961 -0.448851 120 90 79
0.942129 0.100176 -0.443448 121 91 80
1.053463 -0.618233 -0.299261 124 74 44
0.941419 0.058012 -0.437229 81 47 34
0.946710 -0.013751 -0.422574 137 104 88
0.938210 0.050857 -0.438098 92 57 44
0.939149 0.036949 -0.434908 134 99 86
0.936676 0.084916 -0.446357 80 49 40
0.934745 0.104496 -0.451296 76 44 38
0.937757 0.004874 -0.428636 137 102 88
0.937757 0.004874 -0.428636 137 102 88
0.935317 0.043118 -0.437576 88 53 43
0.927447 0.166383 -0.467343 119 83 75
0.931248 0.102614 -0.452998 124 93 78
0.931248 0.102614 -0.452998 124 93 78
0.930009 0.097477 -0.451671 72 45 35
0.932789 -0.021736 -0.428523 146 109 95
1.213451 -0.592129 -0.378984 179 130 114
0.921263 0.165002 -0.473619 122 89 74
0.951424 -0.281258 -0.371497 20 14 15
0.943350 -0.232113 -0.382063 115 107 108
0.926114 -0.003963 -0.436761 147 111 95
0.911791 0.185165 -0.481186 43 26 23
0.911791 0.185165 -0.481186 43 26 23
0.917995 0.113866 -0.467437 122 93 86
0.922082 0.027444 -0.448006 140 107 92
0.913229 0.027297 -0.450639 88 51 43
0.905898 0.191265 -0.491105 118 83 69
0.964339 -0.187211 -0.418608 169 126 111
0.909636 0.012811 -0.450907 144 108 90
0.909636 0.012811 -0.450907 144 108 90
0.910847 0.058930 -0.462987 105 79 73
0.909179 0.027391 -0.458057 80 48 35
0.908063 0.024423 -0.457762 76 45 36
0.908495 0.159889 -0.494793 97 68 64
0.911218 0.101394 -0.484247 92 71 69
0.917343 -0.054885 -0.448528 156 123 108
0.910846 0.084972 -0.481168 92 73 68
0.911912 0.076738 -0.479762 69 52 49
0.913048 0.153259 -0.499902 27 18 15
0.913048 0.153259 -0.499902 27 18 15
0.891079 0.190849 -0.502104 50 27 25
0.890562 0.198126 -0.505118 63 33 28
0.902051 0.108340 -0.490560 84 63 55
0.884318 0.198023 -0.509160 47 28 21
0.895287 0.158170 -0.504411 93 67 55
0.900901 0.117024 -0.496605 64 52 48
0.892205 0.007624 -0.467298 97 61 51
0.892205 0.007624 -0.467298 97 61 51
0.883515 0.202646 -0.512177 51 30 22
0.883515 0.202646 -0.512177 51 30 22
0.890067 0.047303 -0.476910 126 93 78
0.890067 0.047303 -0.476910 126 93 78
0.908145 -0.245149 -0.413015 90 76 80
0.908145 -0.245149 -0.413015 90 76 80
0.904642 -0.093236 -0.450779 148 112 94
0.904642 -0.093236 -0.450779 148 112 94
0.882965 0.054731 -0.482888 109 78 69
0.887813 -0.049217 -0.464711 98 91 94
0.902896 -0.271772 -0.417187 41 29 23
0.881298 -0.019204 -0.472735 136 103 88
0.881298 -0.019204 -0.472735 136 103 88
0.893847 -0.295921 -0.411009 65 51 52
0.887669 -0.074934 -0.466405 74 53 61
0.882715 0.147167 -0.518590 101 80 72
0.887245 -0.058638 -0.472376 152 122 111
0.880937 -0.021860 -0.479625 134 98 82
0.879998 0.073314 -0.504197 95 75 70
0.881411 -0.103018 -0.468181 53 35 28
0.865958 -0.022083 -0.484061 88 54 48
0.865958 -0.022083 -0.484061 88 54 48
0.855966 0.201952 -0.535203 67 42 32
0.863526 -0.005577 -0.488598 152 116 100
0.865444 0.155099 -0.529317 99 72 62
0.875835 -0.097350 -0.474496 153 118 98
0.875835 -0.097350 -0.474496 153 118 98
0.859649 -0.114868 -0.466913 38 34 45
0.854236 0.068524 -0.510706 29 22 25
0.858122 0.153457 -0.533663 79 59 64
0.855790 0.216040 -0.548117 124 91 76
0.865247 -0.096587 -0.477120 143 110 91
0.865247 -0.096587 -0.477120 143 110 91
0.867963 -0.105825 -0.477448 53 34 26
0.842778 0.014009 -0.498072 104 69 55
0.840082 0.148848 -0.539293 113 84 79
0.840856 -0.083156 -0.492528 152 113 98
0.840856 -0.083156 -0.492528 152 113 98
0.838800 -0.114430 -0.487425 144 105 91
0.838800 -0.114430 -0.487425 144 105 91
0.828761 0.122721 -0.544998 42 26 27
0.833736 -0.097751 -0.495151 144 106 94
0.832197 -0.097434 -0.494734 144 106 94
0.832810 -0.033026 -0.510504 60 35 31
0.832848 -0.097771 -0.498544 72 43 39
0.829811 -0.026489 -0.514433 91 52 43
0.825770 0.020261 -0.527257 82 52 47
0.825770 0.020261 -0.527257 82 52 47
0.829006 -0.110935 -0.501621 43 33 45
0.818318 0.056664 -0.541379 12 14 22
0.821967 0.148824 -0.564929 104 75 70
0.824958 0.122536 -0.561124 117 91 79
0.823461 -0.135699 -0.500556 77 49 49
0.824858 0.088828 -0.555054 94 75 67
0.815915 0.013725 -0.534155 132 97 83
0.824671 0.064781 -0.550300 76 58 51
0.814246 -0.019147 -0.529713 135 102 87
0.826541 -0.098460 -0.518136 67 41 34
0.821486 -0.102820 -0.515062 139 105 92
0.821486 -0.102820 -0.515062 139 105 92
0.823432 -0.054853 -0.527502 74 48 41
0.823332 -0.111466 -0.517759 57 38 30
0.819301 -0.082336 -0.525611 76 47 40
0.810189 0.094970 -0.564090 93 71 60
0.818215 -0.049231 -0.535011 151 114 100
0.801629 0.020736 -0.547884 54 32 34
0.799620 0.023575 -0.552009 106 78 71
0.792845 0.002787 -0.551668 132 102 83
0.792845 0.002787 -0.551668 132 102 83
0.796837 0.102350 -0.580406 104 78 71
0.807593 -0.089659 -0.541910 86 65 68
0.789338 -0.006448 -0.552914 129 97 84
0.783093 0.119328 -0.580393 20 13 10
0.792631 0.097566 -0.584134 23 17 10
0.780656 -0.080880 -0.557384 53 34 27
0.768590 -0.070045 -0.559463 121 96 92
0.767163 -0.135573 -0.547896 30 26 38
0.759723 -0.142760 -0.548926 67 43 43
0.717604 -0.332531 -0.523111 174 128 111
0.725066 -0.062338 -0.611290 161 124 110
0.718684 -0.261230 -0.576826 151 116 112
0.703353 -0.143329 -0.597578 42 37 52
0.705063 -0.141632 -0.603161 98 90 97
0.687564 -0.330830 -0.578302 101 93 103
0.687564 -0.330830 -0.578302 101 93 103
0.674877 -0.056565 -0.635889 58 51 64
0.688066 -0.317620 -0.592884 126 83 62
0.655509 -0.335855 -0.600423 64 54 66
0.628874 -0.381263 -0.608414 112 80 67
0.637173 -0.169643 -0.656054 169 125 108
0.630803 -0.156619 -0.665373 57 48 61
0.646861 -0.188565 -0.678261 176 130 113
0.619189 -0.264349 -0.648008 53 38 52
0.627572 -0.124018 -0.685398 43 33 26
0.627572 -0.124018 -0.685398 43 33 26
0.877766 -0.740302 -0.756806 255 202 181
0.602703 -0.082454 -0.707989 105 94 97
0.602703 -0.082454 -0.707989 105 94 97
0.589550 -0.154477 -0.711428 38 22 23
0.562078 -0.349800 -0.679582 65 57 64
0.562078 -0.349800 -0.679582 65 57 64
-0.042668 0.174970 -0.342202 56 38 27
0.554650 -0.355326 -0.681385 113 74 65
0.567455 -0.226077 -0.721899 176 130 113
0.535099 -0.364862 -0.682917 166 123 106
0.526991 -0.356414 -0.710325 61 51 67
0.530170 -0.177831 -0.743507 114 76 71
0.779477 -0.754177 -0.837810 253 200 179
0.773125 -0.745965 -0.843936 76 50 43
0.529784 -0.303263 -0.730545 164 131 116
0.525289 -0.171957 -0.750921 50 43 56
0.525289 -0.171957 -0.750921 50 43 56
0.492723 -0.359458 -0.736211 56 49 62
0.499665 -0.140775 -0.784350 107 93 97
0.585305 -0.560384 -0.788150 141 102 80
0.577520 -0.562173 -0.794403 154 116 98
0.479666 -0.358948 -0.752840 68 61 74
0.487062 -0.153804 -0.797631 165 125 107
0.487062 -0.153804 -0.797631 165 125 107
0.480982 -0.154207 -0.801253 160 125 105
0.467213 -0.363568 -0.758066 60 51 61
0.467213 -0.363568 -0.758066 60 51 61
0.449105 -0.144496 -0.826390 170 127 108
0.449105 -0.144496 -0.826390 170 127 108
0.602000 -0.737245 -0.902202 255 200 169
0.422065 -0.370762 -0.798077 54 44 60
0.420763 -0.358326 -0.815453 84 58 42
0.425244 -0.122185 -0.857145 37 18 21
0.421728 -0.152269 -0.853734 19 14 13
0.413834 -0.351255 -0.820935 166 129 115
0.407212 -0.358601 -0.823632 90 62 45
0.403167 -0.355929 -0.824624 93 60 45
0.395542 -0.373863 -0.818992 63 54 67
0.394701 -0.370543 -0.823607 95 85 91
0.406487 -0.139780 -0.866711 27 21 16
0.391111 -0.375250 -0.824076 55 48 63
0.396137 -0.188790 -0.853680 46 39 52
0.393451 -0.369830 -0.829690 38 29 42
0.390714 -0.344369 -0.841600 81 53 42
0.391045 -0.354525 -0.840711 168 132 114
0.391045 -0.354525 -0.840711 168 132 114
0.392248 -0.329740 -0.845054 81 53 36
0.384830 -0.354718 -0.844559 173 134 119
0.384830 -0.354718 -0.844559 173 134 119
0.378460 -0.362350 -0.847348 80 51 37
0.379458 -0.330840 -0.854424 76 43 28
0.385140 -0.137766 -0.887396 38 20 21
0.308410 -0.469863 -0.856442 77 64 56
0.324729 -0.370990 -0.894222 85 53 34
0.324729 -0.370990 -0.894222 85 53 34
0.323608 -0.363289 -0.895417 168 129 115
0.323608 -0.363289 -0.895417 168 129 115
0.317927 -0.380095 -0.889479 44 38 49
0.319644 -0.365265 -0.901338 166 129 115
0.327198 -0.128644 -0.938319 20 15 12
0.317425 -0.330459 -0.909096 74 39 35
0.499371 -0.788106 -1.076850 45 19 19
0.312990 -0.364990 -0.904557 162 129 113
0.312990 -0.364990 -0.904557 162 129 113
0.312447 -0.372482 -0.903928 79 49 38
0.309552 -0.344181 -0.910585 91 58 42
0.308980 -0.321232 -0.913643 73 43 26
0.314793 -0.167032 -0.941146 19 14 15
0.315257 -0.130174 -0.948223 21 16 13
0.315257 -0.130174 -0.948223 21 16 13
0.298819 -0.353517 -0.920344 83 48 38
0.299051 -0.339244 -0.923025 76 44 39
0.299127 -0.332374 -0.924251 76 38 34
0.477987 -0.791807 -1.096975 73 48 46
0.307836 -0.127545 -0.956565 111 98 100
0.290403 -0.336989 -0.930539 167 134 115
0.290403 -0.336989 -0.930539 167 134 115
0.348710 -0.590644 -0.979541 150 107 88
0.285840 -0.388189 -0.922399 40 36 47
0.465530 -0.794788 -1.107325 60 31 27
0.344599 -0.587044 -0.978897 157 118 96
0.283895 -0.377036 -0.928423 82 53 38
0.284401 -0.360467 -0.931459 82 55 41
0.284615 -0.330378 -0.937179 76 50 36
0.281195 -0.355611 -0.933738 83 54 33
0.281070 -0.341050 -0.936048 77 47 30
0.269852 -0.392401 -0.925544 63 54 64
0.179765 -0.325667 -1.012823 37 30 43
0.702505 0.020466 0.161337 143 101 82
0.602635 0.307306 0.061457 80 70 60
0.600674 0.344507 0.047802 91 71 53
1.012946 -0.520802 0.360306 63 41 36
0.608184 0.310334 0.055312 85 48 28
0.607732 0.304517 0.054230 65 40 30
0.609196 0.309581 0.051513 79 44 31
0.610403 0.308506 0.049430 78 43 30
0.610403 0.308506 0.049430 78 43 30
0.698218 -0.148143 0.194674 112 63 49
0.599181 0.265049 0.059470 81 67 45
0.613133 0.325089 0.043301 87 83 55
0.611806 0.301570 0.048867 41 38 23
0.687279 -0.187358 0.202816 46 41 50
0.687279 -0.187358 0.202816 46 41 50
0.615202 0.305706 0.044520 70 34 24
0.615598 0.299175 0.043484 37 12 2
0.617662 0.294932 0.042018 102 61 46
0.618198 0.306146 0.037048 131 87 64
0.619239 0.298412 0.039417 42 10 4
0.619239 0.298412 0.039417 42 10 4
0.724027 0.011112 0.135441 91 55 39
0.620829 0.298092 0.036455 78 65 57
0.732779 0.008846 0.125474 87 54 45
0.732779 0.008846 0.125474 87 54 45
0.717299 -0.005940 0.125732 38 30 41
0.812362 -0.354472 0.231141 7 5 4
0.759108 0.210771 0.049254 29 22 29
0.730876 -0.021679 0.111699 107 68 59
0.752114 0.204192 0.048628 92 73 82
0.752114 0.204192 0.048628 92 73 82
0.732551 -0.117817 0.129338 112 73 64
0.774039 0.200772 0.030795 96 73 81
0.786093 -0.033214 0.048252 104 65 50
0.795352 -0.028024 0.042418 51 40 50
0.806237 -0.002875 0.033457 148 110 92
0.802557 -0.212810 0.070104 56 48 58
0.819866 -0.173910 0.052006 72 40 29
0.837977 -0.010085 0.000268 145 105 87
0.818055 -0.212058 0.053541 43 29 35
0.846496 0.005397 -0.010868 87 54 39
0.840070 0.052306 -0.026247 60 49 57
0.836746 -0.166299 0.029546 143 107 89
0.843445 -0.174839 0.025373 78 48 29
0.853967 -0.222924 0.033410 56 47 57
0.866036 0.301880 -0.109364 96 73 78
0.833999 -0.144754 0.005997 43 33 45
0.886217 0.294033 -0.128377 128 90 72
1.193672 -0.538937 0.083951 50 23 26
0.962518 -0.386056 0.043016 13 9 4
0.954100 -0.387287 0.030926 87 71 65
0.954100 -0.387287 0.030926 87 71 65
0.873649 -0.146887 -0.035169 99 56 37
0.952806 -0.418423 0.018078 121 86 66
0.906190 0.156035 -0.128395 85 51 45
0.924860 0.228356 -0.148944 19 12 9
0.918937 0.261703 -0.158473 46 35 38
0.931836 0.234903 -0.155330 74 57 44
0.932311 0.218820 -0.152480 71 53 42
0.883688 -0.276321 -0.025748 114 77 63
0.933811 0.185868 -0.147056 70 58 52
0.933811 0.185868 -0.147056 70 58 52
0.933545 0.253051 -0.164377 122 91 76
0.934230 0.200424 -0.154590 100 73 63
0.941410 0.233434 -0.166953 112 83 74
0.941913 0.216671 -0.163828 112 80 74
0.939998 0.199951 -0.160690 100 71 66
0.942632 0.191896 -0.159438 110 84 78
0.942411 0.183860 -0.157941 108 82 75
0.943022 0.167253 -0.154966 97 75 69
0.913470 -0.054491 -0.098654 47 38 48
0.913470 -0.054491 -0.098654 47 38 48
0.940872 0.216109 -0.168409 70 59 62
0.916740 -0.190604 -0.066342 20 13 10
0.903902 -0.238276 -0.054633 57 43 54
0.903902 -0.238276 -0.054633 57 43 54
0.916968 -0.206474 -0.063520 18 12 7
0.941140 0.178777 -0.161710 69 61 68
0.941140 0.178777 -0.161710 69 61 68
0.933344 -0.010787 -0.114946 129 97 78
0.933344 -0.010787 -0.114946 129 97 78
0.923705 -0.170215 -0.075611 135 100 86
0.923705 -0.170215 -0.075611 135 100 86
0.942305 -0.038852 -0.112358 29 17 11
0.925612 -0.217156 -0.067222 152 115 95
0.925612 -0.217156 -0.067222 152 115 95
0.947788 0.234212 -0.182012 29 15 9
0.927954 -0.203546 -0.072669 34 13 5
0.936221 -0.023947 -0.118451 50 31 24
0.930945 -0.178822 -0.080109 41 26 17
0.930532 -0.209615 -0.074323 21 14 11
0.930532 -0.209615 -0.074323 21 14 11
0.956886 0.213307 -0.181737 69 49 38
0.942562 0.003974 -0.128739 143 111 98
0.932435 -0.226014 -0.071389 35 21 15
0.959049 0.189496 -0.177814 70 54 47
0.959049 0.189496 -0.177814 70 54 47
0.960330 0.247668 -0.193118 119 86 71
0.934409 -0.202687 -0.081260 148 116 103
0.938691 -0.032207 -0.125135 96 67 63
0.938691 -0.032207 -0.125135 96 67 63
0.967501 0.236280 -0.197657 109 83 76
0.966785 0.211029 -0.192814 109 81 74
0.932649 -0.203209 -0.088479 89 76 78
0.965356 0.194121 -0.189672 92 66 59
0.932732 -0.185794 -0.093718 107 92 90
0.932732 -0.185794 -0.093718 107 92 90
0.967373 0.186563 -0.188426 106 80 73
0.967848 0.177705 -0.186894 107 79 72
0.947115 -0.027176 -0.136180 52 33 25
0.958074 0.001060 -0.146697 123 95 84
0.949657 -0.222599 -0.095414 156 119 99
0.949657 -0.222599 -0.095414 156 119 99
0.962518 -0.029317 -0.146666 43 27 20
0.948690 -0.052738 -0.141364 18 13 14
0.954778 -0.215065 -0.102610 22 15 12
0.954778 -0.215065 -0.102610 22 15 12
0.966742 -0.001511 -0.157235 142 110 99
0.960099 0.025844 -0.165231 55 44 54
0.968027 0.142375 -0.194872 81 52 47
0.958361 -0.193399 -0.112441 150 115 102
0.957536 -0.242825 -0.105493 40 28 40
0.955408 -0.249921 -0.111236 54 44 56
0.983735 0.202410 -0.227551 34 11 3
1.393596 -0.615262 -0.067112 238 185 164
0.962733 0.166573 -0.230210 58 27 18
1.018689 0.218928 -0.264441 28 22 27
0.983256 -0.259272 -0.146935 161 115 97
1.025899 0.200391 -0.262144 117 81 71
1.032158 0.191624 -0.265164 27 18 14
1.035692 0.185984 -0.270205 110 84 78
1.035984 0.175909 -0.268315 112 84 77
1.035098 0.156057 -0.264627 101 77 71
1.061715 -0.389604 -0.152281 40 23 20
1.000733 0.176593 -0.321317 143 103 85
1.006876 -0.357087 -0.201453 48 29 26
1.006876 -0.357087 -0.201453 48 29 26
1.002889 0.055641 -0.296253 143 108 88
1.013922 0.273250 -0.349832 18 11 8
1.017139 0.109472 -0.316008 98 72 66
1.012277 -0.354665 -0.209752 165 125 107
1.049278 -0.603564 -0.158403 185 133 92
1.002792 0.052244 -0.303397 74 45 40
1.012704 0.135345 -0.327524 29 18 14
1.015178 0.119476 -0.326363 69 53 46
1.015178 0.119476 -0.326363 69 53 46
1.014807 0.009976 -0.301543 29 14 11
1.015324 0.102349 -0.322988 72 58 52
1.013698 -0.100420 -0.276914 126 98 87
1.014056 0.032685 -0.310442 103 81 75
1.014056 0.032685 -0.310442 103 81 75
1.014272 0.026310 -0.309305 129 98 83
1.014464 0.004892 -0.305030 99 78 70
1.013953 0.021412 -0.312814 29 14 11
1.013828 0.125655 -0.336626 82 63 58
1.012867 0.015942 -0.311731 84 65 52
1.012867 0.015942 -0.311731 84 65 52
1.013065 0.115000 -0.336329 60 46 47
1.014666 0.025591 -0.317899 119 90 81
1.014666 0.025591 -0.317899 119 90 81
1.013449 -0.094885 -0.291514 28 13 11
1.012237 -0.571426 -0.184088 124 85 47
1.005922 -0.406100 -0.221283 58 44 46
1.011132 -0.388909 -0.228576 73 39 26
1.014500 -0.079782 -0.298948 133 107 101
1.011175 0.136051 -0.347113 100 80 75
1.010022 0.028945 -0.322876 80 66 68
1.011590 0.006516 -0.323192 110 84 77
1.009803 -0.182680 -0.284169 115 99 100
1.011443 -0.087940 -0.306505 120 91 82
1.011875 -0.103135 -0.303242 112 86 80
1.007756 0.137899 -0.357793 33 24 15
1.010547 -0.299653 -0.261835 120 98 93
1.013168 -0.072381 -0.313465 27 12 9
1.012754 -0.182211 -0.289501 138 105 90
1.003026 -0.311798 -0.259627 109 98 101
1.012412 0.001636 -0.331085 91 72 64
1.012674 0.126374 -0.359514 19 13 8
1.010740 -0.175914 -0.294705 59 31 20
1.009915 -0.285994 -0.270262 138 106 93
1.001638 -0.405138 -0.242595 113 102 105
1.011259 -0.077426 -0.317042 123 95 84
1.011259 -0.077426 -0.317042 123 95 84
1.009902 -0.296680 -0.268435 140 108 97
1.012975 0.127934 -0.363934 84 66 65
1.098727 -0.693225 -0.196890 254 203 183
1.011267 -0.071454 -0.322725 25 13 13
1.004465 -0.404601 -0.248076 57 43 45
1.010804 -0.192445 -0.296180 141 110 95
1.008654 0.032601 -0.345708 103 82 80
1.010446 -0.203013 -0.294041 134 104 87
1.011208 0.013657 -0.342408 107 87 82
1.098002 -0.722022 -0.194323 255 205 185
1.098133 -0.735723 -0.192947 254 204 181
1.010621 -0.275185 -0.281000 142 114 97
1.010621 -0.275185 -0.281000 142 114 97
1.010262 -0.296648 -0.276934 143 110 94
1.010886 -0.175550 -0.303990 43 23 12
1.011183 -0.088036 -0.323894 126 95 92
1.016781 -0.581212 -0.216215 103 74 43
1.003897 0.005453 -0.344666 49 33 34
1.008924 -0.392885 -0.259277 151 114 94
1.011064 -0.203098 -0.302827 136 101 91
1.095644 -0.735959 -0.200511 255 206 183
1.096904 -0.723417 -0.203606 254 204 184
0.994329 -0.240145 -0.292247 164 121 104
1.097366 -0.695582 -0.210493 255 206 186
1.009232 -0.366286 -0.268329 70 39 24
1.009232 -0.366286 -0.268329 70 39 24
1.010433 -0.285957 -0.287857 151 119 108
1.010287 -0.296568 -0.286095 149 116 107
1.001729 0.178541 -0.389169 84 49 35
0.999925 0.100465 -0.373833 114 82 76
0.999898 -0.064329 -0.342849 134 102 89
0.999214 -0.072063 -0.341476 144 111 96
0.999214 -0.072063 -0.341476 144 111 96
1.007192 -0.578760 -0.233258 107 73 37
1.008538 0.163363 -0.410991 96 75 74
1.011371 0.121076 -0.402953 61 53 54
1.006512 -0.024480 -0.381272 120 91 86
1.001979 -0.284795 -0.330081 42 31 39
1.002128 -0.073024 -0.377015 47 30 27
1.003070 -0.251731 -0.339072 151 122 108
0.985024 -0.099882 -0.371424 34 30 36
0.981773 -0.281932 -0.337500 71 55 56
0.777564 0.172775 -0.393978 96 75 74
0.983215 0.155631 -0.433476 92 70 64
0.982682 0.141478 -0.430853 99 77 72
0.982949 0.117133 -0.426412 79 64 61
0.770462 0.172305 -0.397761 105 78 68
0.975335 -0.062425 -0.395479 90 69 72
0.974467 -0.094103 -0.388801 68 53 61
0.962674 -0.083954 -0.403546 142 109 89
0.953976 -0.103888 -0.398081 45 34 37
18.701161 -3.663641 -3.645576 64 36 29
0.939016 0.050793 -0.438274 93 58 44
0.946192 -0.297706 -0.369927 71 57 68
0.967343 -0.419864 -0.367875 109 82 72
0.967343 -0.419864 -0.367875 109 82 72
1.177193 -0.570467 -0.387829 73 41 28
0.920123 0.023097 -0.448129 97 57 45
0.911478 -0.024502 -0.444944 33 23 29
0.914195 -0.115091 -0.428633 34 27 34
0.909383 -0.302818 -0.398376 67 56 64
0.903561 -0.018624 -0.454262 125 92 77
0.918958 -0.043984 -0.456205 58 39 32
0.897063 -0.111280 -0.439336 40 36 48
1.050206 -0.500189 -0.404973 130 93 73
0.892929 -0.019799 -0.462311 129 95 79
0.892807 -0.121230 -0.442468 98 85 87
0.896814 -0.027876 -0.463665 31 26 35
0.886968 -0.049509 -0.469810 69 56 64
0.889323 -0.058882 -0.469715 73 54 57
0.874694 0.017246 -0.485769 93 57 47
0.873230 0.007460 -0.483872 148 112 96
0.873008 0.027269 -0.489145 82 50 37
0.879333 -0.301590 -0.429604 47 36 46
0.879333 -0.301590 -0.429604 47 36 46
0.860003 -0.129086 -0.467312 78 52 52
0.847329 -0.130063 -0.476232 91 59 54
0.848481 -0.020202 -0.500345 150 116 100
0.848481 -0.020202 -0.500345 150 116 100
0.846084 -0.006184 -0.504266 145 111 95
0.845485 -0.026425 -0.502111 138 102 84
0.845485 -0.026425 -0.502111 138 102 84
0.845713 0.021238 -0.511484 136 102 89
0.845713 0.021238 -0.511484 136 102 89
0.839613 -0.315894 -0.446540 121 86 73
0.839613 -0.315894 -0.446540 121 86 73
0.843798 0.013790 -0.511701 95 57 45
0.843798 0.013790 -0.511701 95 57 45
0.843698 0.013780 -0.511681 95 57 45
0.843698 0.013780 -0.511681 95 57 45
0.843176 0.021426 -0.515130 85 55 50
0.840029 0.053279 -0.521198 51 28 32
0.837110 -0.029359 -0.507021 142 107 93
0.835830 0.046630 -0.523504 76 46 41
0.828105 -0.128127 -0.499655 33 25 36
0.825801 0.023376 -0.529017 79 52 42
0.823605 0.044720 -0.534369 126 98 87
0.823605 0.044720 -0.534369 126 98 87
0.820610 0.014111 -0.529197 89 58 49
0.826878 -0.058776 -0.517952 64 50 61
0.828716 -0.066883 -0.521127 147 117 106
0.817689 0.024639 -0.535452 73 38 28
0.814944 0.026560 -0.538264 127 99 82
0.817085 -0.238248 -0.492552 50 40 52
0.814175 -0.038106 -0.531975 35 29 40
0.807475 -0.134140 -0.513534 102 88 92
0.804141 0.037154 -0.548951 63 37 31
0.801532 0.035554 -0.550292 119 91 84
0.798528 0.018378 -0.550220 115 85 80
0.798428 0.023811 -0.551665 103 77 70
0.787505 0.022106 -0.558569 35 27 28
0.784662 -0.002286 -0.556236 56 35 34
0.784662 -0.002286 -0.556236 56 35 34
0.785288 -0.011663 -0.555909 41 28 30
0.783727 -0.136913 -0.532879 97 82 86
0.796639 0.085328 -0.577613 87 66 58
0.778848 0.001545 -0.562241 86 56 45
0.785366 -0.250823 -0.520581 144 117 103
0.776411 -0.129066 -0.542415 32 26 37
0.788975 0.075497 -0.584429 66 52 46
0.788975 0.075497 -0.584429 66 52 46
0.760132 -0.076109 -0.563860 94 63 62
0.747755 -0.329202 -0.522153 113 77 67
0.746824 0.038085 -0.599733 68 38 37
0.746824 0.038085 -0.599733 68 38 37
0.736718 -0.141835 -0.578817 47 39 50
2.501724 -0.589716 -1.209696 55 36 31
-12.194469 3.039427 3.964604 66 39 29
-11.935148 3.154983 3.952935 41 24 21
0.814005 -0.522071 -0.588608 141 102 80
2.459871 -0.573878 -1.263855 155 122 106
0.688877 -0.324924 -0.576558 50 38 44
0.817022 -0.530276 -0.597184 145 106 84
0.817022 -0.530276 -0.597184 145 106 84
2.463954 -0.625894 -1.273039 159 123 107
0.685846 -0.139460 -0.619706 75 56 53
0.685846 -0.139460 -0.619706 75 56 53
0.676603 -0.149127 -0.625591 48 39 52
0.674595 0.028487 -0.656589 98 60 56
0.632401 0.022322 -0.694023 109 73 67
2.251740 -0.528646 -1.417891 59 42 33
0.613945 -0.323414 -0.655451 169 126 109
0.900047 -0.736142 -0.738607 255 200 179
0.704617 -0.549215 -0.691583 139 100 85
0.599819 -0.155531 -0.695927 39 30 43
-12.542856 3.553740 5.434594 100 85 89
0.698783 -0.544962 -0.691516 142 101 78
0.598867 0.024888 -0.721625 40 34 45
0.597248 -0.159252 -0.695785 55 51 63
0.591390 -0.325664 -0.671687 161 123 105
0.596774 0.023181 -0.728930 39 34 49
0.590441 -0.152290 -0.705468 35 20 18
0.858954 -0.744419 -0.775676 255 202 181
-0.062147 0.197705 -0.421860 12 7 4
2.174909 -0.546092 -1.499786 26 19 16
2.174909 -0.546092 -1.499786 26 19 16
0.566065 -0.270739 -0.690480 46 36 52
0.590033 0.097237 -0.753683 83 63 52
0.569472 -0.072479 -0.723068 46 36 52
0.588169 0.080386 -0.755231 90 71 58
0.588668 0.096344 -0.758316 88 64 52
0.582027 0.043386 -0.748626 90 71 56
0.582027 0.043386 -0.748626 90 71 56
0.579500 0.061885 -0.757028 116 90 73
0.822743 -0.747763 -0.802415 255 198 176
0.527112 -0.340315 -0.725693 120 79 64
0.512481 -0.351209 -0.718368 60 54 65
0.529524 0.013881 -0.781429 43 33 49
0.526355 -0.127864 -0.767346 154 121 105
0.530800 0.059383 -0.796215 55 35 40
0.531446 0.067532 -0.798037 51 30 39
0.530807 0.072182 -0.801297 115 85 74
0.530535 0.088602 -0.804153 114 82 71
0.530965 0.074929 -0.805102 33 18 15
0.529754 0.091437 -0.807563 35 20 18
0.498158 -0.356208 -0.736013 98 87 95
0.498158 -0.356208 -0.736013 98 87 95
0.522905 0.053790 -0.802868 116 87 72
0.511707 0.032417 -0.804466 63 33 28
0.514647 0.040111 -0.807626 68 34 28
0.513503 0.044658 -0.807885 93 57 39
0.517466 0.106036 -0.818014 147 114 95
-0.065405 0.248037 -0.479893 31 89 88
0.507096 0.028741 -0.805038 128 95 75
0.514476 0.103905 -0.819427 84 51 36
0.511032 0.044036 -0.810459 141 108 89
0.506767 0.023474 -0.805719 36 24 18
0.506767 0.023474 -0.805719 36 24 18
0.503912 0.010233 -0.802566 38 33 48
0.494667 -0.170760 -0.781058 33 26 39
1.892514 -0.535496 -1.604923 100 85 89
0.500893 0.008803 -0.808965 38 31 44
0.487130 -0.302881 -0.770230 107 67 48
0.502431 0.052889 -0.822926 110 82 75
0.502799 0.084623 -0.829520 110 81 74
0.496224 0.046528 -0.824358 55 24 25
0.498734 0.054840 -0.827017 28 16 12
0.503845 0.086710 -0.834037 41 25 18
0.531833 0.037212 -0.847719 141 110 95
0.529483 0.021760 -0.845664 65 34 25
0.495145 0.096054 -0.832233 49 29 24
0.490591 0.042120 -0.824163 144 108 90
0.495767 0.101069 -0.834388 89 55 42
0.495767 0.101069 -0.834388 89 55 42
0.493128 0.049571 -0.827576 111 82 67
0.491813 0.067344 -0.829950 105 80 64
0.494094 0.102697 -0.838265 143 113 96
0.487235 0.048602 -0.832354 112 83 69
0.484102 0.066880 -0.833602 106 80 63
0.482457 0.028505 -0.829493 58 32 25
0.485973 0.102368 -0.841157 141 108 92
1.821542 -0.716197 -1.615245 55 47 58
1.821542 -0.716197 -1.615245 55 47 58
0.477911 0.025199 -0.829869 129 96 76
0.479701 0.040233 -0.834390 149 113 97
0.482606 0.047818 -0.837360 108 81 67
0.486049 0.065002 -0.841721 108 83 67
0.481083 0.086223 -0.841348 37 23 17
0.483168 0.076969 -0.841741 40 29 21
0.483716 0.060273 -0.841519 46 28 17
0.443160 -0.378163 -0.773447 162 120 101
0.614213 -0.741469 -0.867315 255 196 176
0.655435 -0.727382 -0.905787 120 85 72
0.422241 -0.370952 -0.797921 53 43 59
0.420327 0.045733 -0.837948 151 117 94
0.417477 0.039624 -0.840879 104 59 46
0.416377 0.040420 -0.842734 152 115 93
0.415473 0.040518 -0.842317 152 115 93
0.415743 0.044323 -0.843967 140 109 88
0.598814 -0.787832 -0.890985 177 108 93
0.598814 -0.787832 -0.890985 177 108 93
0.610236 -0.729298 -0.905937 247 192 171
0.610236 -0.729298 -0.905937 247 192 171
0.598576 -0.786649 -0.892765 255 198 178
0.601084 -0.732766 -0.899973 182 118 107
0.600182 -0.767997 -0.896579 251 193 171
0.599739 -0.767647 -0.896403 251 193 171
0.603181 -0.730612 -0.904618 100 30 30
0.603181 -0.730612 -0.904618 100 30 30
1.636254 -1.085711 -1.593634 39 34 43
0.627424 -0.244921 -0.981366 138 108 91
0.419798 -0.511425 -0.811597 177 139 115
0.423159 -0.505657 -0.817468 36 17 12
1.584537 -0.640972 -1.635377 24 20 15
1.593966 -0.526610 -1.662081 23 17 18
1.593966 -0.526610 -1.662081 23 17 18
0.618003 -0.248312 -0.989161 31 21 14
1.572548 -0.624467 -1.649242 158 122 104
1.572548 -0.624467 -1.649242 158 122 104
0.613172 -0.249444 -0.995446 30 16 18
0.592702 -0.738238 -0.941236 94 66 49
1.568786 -0.628227 -1.661873 157 121 105
0.407717 -0.115694 -0.868543 34 23 19
0.394178 -0.359570 -0.837574 86 53 38
0.623213 -0.771115 -0.971820 79 40 31
0.604986 -0.769618 -0.960968 255 195 171
0.403320 -0.178539 -0.866931 84 71 79
0.403320 -0.178539 -0.866931 84 71 79
0.403253 -0.166202 -0.869389 94 77 81
0.403253 -0.166202 -0.869389 94 77 81
0.386636 -0.338995 -0.845305 84 54 37
0.385774 -0.337534 -0.848205 167 136 115
0.385774 -0.337534 -0.848205 167 136 115
0.383815 -0.361279 -0.847122 72 41 32
0.384167 -0.335588 -0.850713 78 42 36
1.539035 -0.655218 -1.693999 22 17 14
1.539035 -0.655218 -1.693999 22 17 14
0.386973 -0.167279 -0.880246 159 119 100
0.386973 -0.167279 -0.880246 159 119 100
0.987240 -0.351047 -1.321717 38 21 18
0.367374 -0.299732 -0.857016 41 31 43
0.385102 -0.172826 -0.881953 30 16 18
1.517610 -0.620241 -1.723719 21 16 15
0.365158 -0.193537 -0.880391 55 47 58
0.358838 -0.201174 -0.882922 106 69 55
0.349819 -0.253761 -0.889833 173 127 109
0.329011 -0.384894 -0.875876 48 36 48
0.326835 -0.383537 -0.876366 62 52 68
0.329435 -0.330829 -0.897009 153 125 108
0.329493 -0.317673 -0.898870 149 121 110
0.515995 -0.750312 -1.026693 163 123 111
0.515995 -0.750312 -1.026693 163 123 111
0.324993 -0.354563 -0.897651 74 50 38
0.325294 -0.324290 -0.902818 64 38 31
0.321192 -0.349263 -0.901280 79 49 32
0.321004 -0.334848 -0.903601 78 47 32
0.321004 -0.334848 -0.903601 78 47 32
0.320985 -0.329237 -0.904534 75 43 30
0.318907 -0.346823 -0.903706 155 124 103
0.317479 -0.370191 -0.902407 76 46 35
0.319009 -0.332644 -0.906349 169 136 116
0.319793 -0.317925 -0.909770 145 116 107
0.330565 -0.158117 -0.931169 36 17 20
0.317344 -0.321355 -0.910849 73 37 31
0.523596 -0.785870 -1.058589 61 36 34
0.312816 -0.355733 -0.907019 75 49 37
0.328015 -0.147150 -0.935431 22 15 12
0.313509 -0.326068 -0.912736 67 38 24
0.321523 -0.193477 -0.927466 42 30 30
0.510674 -0.266084 -1.085829 30 19 15
0.310332 -0.336881 -0.912578 81 50 35
0.321520 -0.176759 -0.935052 158 122 104
0.321520 -0.176759 -0.935052 158 122 104
0.318523 -0.182072 -0.936195 30 17 15
0.507151 -0.215855 -1.096974 161 132 111
0.300765 -0.335015 -0.921219 152 122 105
0.298586 -0.373699 -0.917622 71 43 32
0.315427 -0.148753 -0.945245 24 17 14
0.312323 -0.160704 -0.944490 30 21 17
0.312428 -0.153334 -0.945532 29 20 17
0.296934 -0.328635 -0.927331 66 40 24
-0.023768 -0.027169 -0.664333 94 77 81
-0.023768 -0.027169 -0.664333 94 77 81
0.299367 -0.204070 -0.938348 55 49 60
0.289549 -0.368357 -0.924137 168 131 117
0.292307 -0.333601 -0.928866 83 49 26
0.308742 -0.141862 -0.954890 93 79 81
0.288631 -0.335014 -0.932719 84 44 39
0.297894 -0.180140 -0.954609 168 125 108
-0.032771 -0.031005 -0.669192 31 21 14
0.295023 -0.185473 -0.955852 30 19 15
0.347279 -0.595402 -0.987696 165 129 113
0.292652 -0.180947 -0.958852 162 123 108
0.292652 -0.180947 -0.958852 162 123 108
0.292798 -0.160851 -0.962616 160 130 113
0.262153 -0.398783 -0.926797 101 64 50
0.293226 -0.124571 -0.969317 159 116 101
0.286693 -0.191036 -0.962507 20 16 11
0.287166 -0.134866 -0.972667 21 18 10
0.281303 -0.144687 -0.975131 127 107 96
0.274394 0.141820 -0.994884 42 13 6
0.272702 0.137996 -0.996111 166 105 85
0.272888 0.145887 -0.997029 165 108 83
0.271176 0.141911 -0.998322 45 11 12
0.253612 0.021438 -0.977587 146 108 90
0.251816 0.020797 -0.979296 131 99 88
0.251204 0.018767 -0.981022 44 13 14
0.251801 0.024300 -0.982121 59 44 28
0.269636 0.129252 -1.002768 133 96 76
0.250478 0.016514 -0.982593 145 108 86
0.249039 0.020355 -0.982536 134 110 82
0.245950 0.020526 -0.983070 145 111 87
0.269826 0.131364 -1.023391 82 53 38
0.389539 -0.767524 -1.134676 147 108 86
0.183272 -0.404156 -0.996827 55 46 59
0.183272 -0.404156 -0.996827 55 46 59
0.572434 0.122333 0.283525 94 71 63
0.559632 -0.010248 0.320310 123 88 75
0.553763 -0.071520 0.335132 100 60 42
0.573195 0.107840 0.281255 63 56 69
0.573195 0.107840 0.281255 63 56 69
0.577849 0.129583 0.275392 58 30 19
0.564246 -0.001947 0.312980 76 41 37
0.563610 -0.012724 0.315899 106 75 66
0.582845 0.182599 0.258519 26 18 18
0.582248 0.101343 0.284227 96 77 74
0.579047 0.147676 0.267856 22 10 4
0.579047 0.147676 0.267856 22 10 4
0.567491 0.007730 0.308964 138 94 77
0.567491 0.007730 0.308964 138 94 77
0.564844 0.008107 0.307466 138 94 77
0.583745 0.157080 0.263452 120 81 67
0.580806 0.118086 0.274860 121 84 70
0.582904 0.143340 0.266727 15 10 9
0.587126 0.160250 0.260923 64 37 23
0.584950 0.052086 0.294019 56 33 25
0.588420 0.172470 0.255418 118 75 60
0.585952 0.046596 0.293499 136 95 73
0.585952 0.046596 0.293499 136 95 73
0.584837 0.135109 0.263964 136 92 75
0.573982 0.011376 0.299793 94 70 64
0.592701 0.102202 0.275966 35 23 23
0.575337 0.004299 0.301286 141 98 77
0.574245 -0.010360 0.303268 90 51 42
0.589239 0.135573 0.260268 85 46 32
0.586740 0.120767 0.264005 119 89 72
0.574753 -0.002421 0.299386 129 93 75
0.590411 0.138493 0.259111 123 88 75
0.576065 -0.005128 0.300167 93 49 36
0.576065 -0.005128 0.300167 93 49 36
0.589274 0.121869 0.263547 65 33 27
0.592813 0.159186 0.251203 43 21 15
0.589858 0.119565 0.262201 101 72 63
0.592086 0.142362 0.254872 28 14 8
0.579375 0.002357 0.295176 71 35 27
0.595340 0.166617 0.247652 118 84 68
0.593441 0.135529 0.256299 120 83 63
0.594927 0.137456 0.255374 117 83 70
0.594749 0.159821 0.247621 99 70 66
0.595143 0.143605 0.251813 93 67 53
0.595206 0.044978 0.282807 124 90 67
0.596142 0.141353 0.251899 73 50 42
0.596142 0.141353 0.251899 73 50 42
0.597748 0.050435 0.281463 108 82 68
0.597748 0.050435 0.281463 108 82 68
0.593947 0.097077 0.264391 76 66 72
0.598761 0.171362 0.241532 123 87 69
0.598033 0.138055 0.251912 39 21 22
0.598033 0.138055 0.251912 39 21 22
0.597115 0.037955 0.283536 114 88 72
0.596493 0.125569 0.253452 115 80 67
0.584008 0.001197 0.289063 104 61 44
0.597596 0.145133 0.247545 22 13 10
0.594860 0.100207 0.260860 25 17 18
0.597388 0.133094 0.250992 59 29 24
0.600452 0.163400 0.241333 112 80 69
0.600025 0.151604 0.244528 61 29 23
0.600025 0.151604 0.244528 61 29 23
0.585324 -0.007739 0.290052 115 67 49
0.586726 0.003661 0.286096 100 55 44
0.596389 0.112989 0.254328 103 77 63
0.596407 0.104890 0.255161 16 11 12
0.603190 0.169305 0.236764 100 71 64
0.602188 0.147248 0.243106 121 86 72
0.601540 0.099434 0.258159 29 20 23
0.605757 0.170708 0.235899 49 23 23
0.601402 0.134245 0.245434 129 86 71
0.606050 0.096359 0.256096 124 89 75
0.590140 0.000691 0.281010 67 28 19
0.593905 0.006978 0.278058 125 90 80
0.609053 0.177011 0.228934 25 12 14
0.613945 0.097838 0.254325 36 20 21
0.614080 0.094780 0.255285 149 113 95
0.610508 0.161845 0.229461 65 31 18
0.610671 0.159192 0.229789 67 31 23
0.610474 0.147748 0.232771 70 38 32
0.611496 0.036459 0.268123 63 35 24
0.612364 0.154164 0.229470 71 36 32
0.613906 0.177844 0.222108 30 18 18
0.616234 0.174257 0.221974 122 89 80
0.611113 0.125389 0.235497 59 31 30
0.611113 0.125389 0.235497 59 31 30
0.630895 -0.299813 0.374049 122 81 66
0.630895 -0.299813 0.374049 122 81 66
0.612582 0.117225 0.235512 121 82 67
0.604166 0.003456 0.267435 128 91 77
0.622695 0.192332 0.210981 66 56 72
0.604972 0.000334 0.265368 90 47 38
0.617287 0.126366 0.228573 124 85 70
0.620679 0.073923 0.244196 46 28 27
0.620793 0.037882 0.254613 68 34 21
0.621260 0.036047 0.254916 114 85 76
0.618170 0.123486 0.226297 61 30 21
0.618000 0.083962 0.238289 71 63 70
0.609021 0.001023 0.259327 136 93 76
0.621543 0.135097 0.221059 74 39 29
0.624443 0.151820 0.215091 90 51 37
0.620255 0.087786 0.232800 41 27 31
0.620255 0.087786 0.232800 41 27 31
0.622876 0.111834 0.225712 134 91 76
0.613386 0.003985 0.255453 48 25 23
0.624599 0.133632 0.218194 119 84 70
0.625130 0.140558 0.216126 75 40 30
0.621355 0.090926 0.230073 79 68 78
0.621355 0.090926 0.230073 79 68 78
0.622606 0.108720 0.223378 139 96 77
0.615882 0.001958 0.252278 104 76 69
0.615882 0.001958 0.252278 104 76 69
0.617046 0.011452 0.248530 23 19 25
0.620788 0.062675 0.232774 45 27 28
0.626965 0.112466 0.218496 90 53 39
0.635695 0.193524 0.195711 33 19 21
0.622769 0.056302 0.234003 49 27 29
0.621385 0.023555 0.242452 80 72 79
0.621385 0.023555 0.242452 80 72 79
0.625962 0.076339 0.226963 121 84 70
0.625081 0.082090 0.224048 70 36 30
0.625081 0.082090 0.224048 70 36 30
0.624591 0.065805 0.228591 118 86 73
0.627053 0.086147 0.222980 82 47 34
0.624392 0.054199 0.232103 65 36 32
0.624710 0.069375 0.227333 103 78 76
0.623433 0.019814 0.240846 48 27 30
0.622825 0.014171 0.242089 40 23 26
0.627457 0.070988 0.224735 65 36 31
0.629988 0.098652 0.216760 57 31 25
0.624896 0.013860 0.239732 123 91 80
0.613692 -0.088962 0.267944 90 51 42
0.624539 0.016436 0.237793 93 57 47
0.626471 0.001065 0.238848 143 100 83
0.629272 0.001953 0.234593 91 55 45
0.629272 0.001953 0.234593 91 55 45
0.631793 0.001291 0.233541 83 45 41
0.631793 0.001291 0.233541 83 45 41
0.650670 0.210963 0.173931 142 99 82
0.630873 -0.000342 0.232692 141 100 91
0.662197 0.211121 0.160876 93 76 79
0.658161 0.049624 0.204054 156 111 90
0.947988 -0.515543 0.443345 233 176 155
0.972184 -0.521470 0.408356 254 197 175
0.601203 0.283752 0.060587 68 60 37
0.607533 0.326493 0.049382 116 88 64
0.609091 0.304459 0.054576 68 41 31
0.600365 0.280871 0.059017 48 19 12
0.600649 0.277700 0.058567 105 78 57
0.602397 0.283558 0.056535 71 59 41
0.610236 0.305583 0.051073 134 87 66
0.608612 0.289633 0.052360 14 17 1
0.614499 0.309950 0.047751 123 80 59
0.614499 0.309950 0.047751 123 80 59
0.613368 0.307494 0.046627 82 49 34
0.613368 0.307494 0.046627 82 49 34
0.614952 0.301379 0.045572 109 79 62
1.011070 -0.527124 0.368057 233 189 165
0.986775 -0.499954 0.350558 149 113 97
0.707258 -0.150264 0.184111 120 70 52
1.029081 -0.532535 0.351738 234 181 154
0.981956 -0.491351 0.326516 33 12 11
0.722696 -0.194995 0.159558 49 42 55
0.722696 -0.194995 0.159558 49 42 55
1.066671 -0.542505 0.299669 252 193 173
1.077120 -0.538647 0.295731 74 48 42
0.791825 -0.386797 0.190698 28 18 11
0.904605 -0.386955 0.168180 150 110 92
0.904218 -0.383975 0.160098 132 95 75
0.792344 -0.213902 0.075875 58 47 57
0.836274 0.042841 -0.007169 109 69 50
0.846594 0.027874 -0.015402 95 61 48
0.836774 -0.151040 0.026886 139 106 87
0.842169 -0.039231 -0.015237 48 39 52
0.839162 -0.144846 0.010488 66 55 63
1.238634 -0.582068 0.104024 254 199 178
1.243646 -0.576307 0.098596 81 53 46
1.253634 -0.578727 0.088580 76 45 42
1.262935 -0.580057 0.077146 83 52 49
0.928498 0.201319 -0.148635 98 71 61
1.224866 -0.546029 0.043892 54 28 28
0.941505 0.208695 -0.162538 116 91 87
0.907451 -0.053428 -0.099741 50 39 49
0.915959 -0.175367 -0.070511 26 17 13
0.941692 0.175409 -0.156438 103 81 76
0.931843 -0.030612 -0.110572 146 108 90
0.933979 0.009426 -0.121665 36 17 12
0.933979 0.009426 -0.121665 36 17 12
1.291624 -0.587362 0.045002 82 45 41
1.292019 -0.591910 0.046131 230 180 152
0.915623 -0.231601 -0.063956 75 59 53
0.915623 -0.231601 -0.063956 75 59 53
0.934771 -0.188614 -0.083843 153 119 106
0.942061 0.018650 -0.134872 102 78 78
0.940273 -0.046404 -0.125440 81 69 75
0.940273 -0.046404 -0.125440 81 69 75
1.201370 -0.528901 0.003601 53 27 21
1.201370 -0.528901 0.003601 53 27 21
1.310790 -0.591628 0.022675 83 51 46
0.948994 -0.175622 -0.104243 140 107 92
0.953052 -0.035298 -0.139681 142 104 86
0.966676 -0.018676 -0.154010 144 112 99
0.959101 -0.208364 -0.109570 148 114 101
0.952803 -0.170322 -0.121426 64 55 65
1.303624 -0.572205 -0.020021 143 103 85
0.961488 -0.064731 -0.153507 42 38 50
1.224712 -0.516611 -0.040646 28 13 11
1.111101 -0.433330 -0.077746 135 95 77
1.109856 -0.430206 -0.085197 138 97 74
1.004629 0.079550 -0.312462 143 105 87
1.014627 0.015147 -0.298553 114 87 77
1.013879 -0.073375 -0.286416 30 13 10
1.013740 -0.105783 -0.280169 29 14 12
1.012526 0.015709 -0.307106 104 81 66
1.012526 0.015709 -0.307106 104 81 66
1.009633 -0.112272 -0.281003 56 42 43
1.014633 -0.066905 -0.291634 147 113 97
1.011736 -0.287037 -0.243250 152 120 109
1.013085 -0.298043 -0.241226 147 113 100
1.002083 -0.412298 -0.215717 82 68 72
1.013044 -0.089695 -0.287923 129 100 85
1.012918 -0.100388 -0.285824 123 97 81
1.015945 0.004864 -0.309642 83 63 52
1.012133 -0.303185 -0.244470 67 35 24
1.012392 -0.072660 -0.295678 30 15 12
1.012392 -0.072660 -0.295678 30 15 12
1.012206 -0.105247 -0.289468 26 14 10
1.010491 -0.366727 -0.232692 70 38 25
1.005311 -0.308172 -0.246271 89 67 62
1.009830 -0.340851 -0.239325 178 132 115
1.013656 -0.089812 -0.296919 126 97 90
1.009853 -0.369492 -0.235755 127 93 77
1.011565 -0.361397 -0.237911 161 127 114
1.009722 -0.100409 -0.296458 106 80 80
1.011240 0.111092 -0.343121 90 70 59
1.009692 -0.275686 -0.258364 135 102 83
1.008361 -0.143606 -0.287499 159 119 100
1.010762 -0.291922 -0.255731 62 33 24
1.011298 -0.078384 -0.302942 101 88 90
1.011076 -0.302493 -0.253871 64 35 21
1.011875 0.027471 -0.327248 114 88 81
1.011480 0.017631 -0.325420 115 88 84
1.008959 -0.366151 -0.241871 76 42 29
1.008959 -0.366151 -0.241871 76 42 29
1.009118 -0.377439 -0.239836 74 39 25
1.009491 -0.388247 -0.237853 71 39 26
1.008802 -0.393547 -0.236807 130 94 76
1.010052 -0.204336 -0.279621 111 93 92
1.012246 0.033419 -0.332710 35 16 11
1.011889 0.022228 -0.330541 25 13 9
1.011548 0.011760 -0.328578 29 14 11
1.007257 -0.303260 -0.259537 128 103 99
1.011807 0.001096 -0.326447 24 13 9
1.011200 0.111324 -0.351562 76 59 50
1.011558 -0.083022 -0.311347 28 11 8
1.011580 -0.093558 -0.309454 26 12 13
1.011818 0.027606 -0.336212 120 92 81
1.011435 0.017071 -0.334053 119 93 81
1.011435 0.017071 -0.334053 119 93 81
1.007512 -0.395361 -0.244158 122 101 100
0.992339 -0.556214 -0.208588 196 156 107
1.010167 0.116486 -0.357437 17 12 11
1.014441 -0.065838 -0.319005 113 83 72
1.009846 -0.181747 -0.293952 127 94 78
1.010793 -0.070877 -0.318154 101 80 78
1.010869 -0.088134 -0.314924 131 100 85
1.010979 0.034139 -0.341798 27 14 12
1.011073 -0.098822 -0.313000 117 91 79
1.011160 0.017341 -0.338409 92 70 58
1.011160 0.017341 -0.338409 92 70 58
1.010140 0.022717 -0.339597 25 14 10
1.010513 0.012258 -0.337640 25 13 13
1.010625 0.001718 -0.335663 26 14 12
1.008668 -0.007661 -0.333694 40 34 39
1.008294 -0.392983 -0.250330 146 115 100
1.010116 -0.269170 -0.277349 63 32 23
1.010116 -0.269170 -0.277349 63 32 23
1.006095 -0.110458 -0.312161 55 40 37
1.010115 -0.291417 -0.273314 67 35 24
1.009574 0.120072 -0.362684 87 68 65
1.000712 0.080955 -0.354245 137 99 87
1.000712 0.080955 -0.354245 137 99 87
1.009823 -0.202966 -0.294008 137 103 87
1.010416 -0.082549 -0.320572 25 12 10
1.007807 0.017444 -0.342385 101 78 70
1.010151 -0.092942 -0.318674 23 12 8
1.008133 -0.365596 -0.259584 75 41 28
1.010476 -0.103681 -0.316764 26 15 11
1.003969 -0.038359 -0.330722 130 93 79
1.005705 -0.214767 -0.292601 71 50 52
1.008176 -0.387456 -0.255535 75 42 27
1.009520 -0.285792 -0.278883 141 109 90
1.008937 -0.175265 -0.303907 31 15 9
1.005315 -0.306510 -0.275382 94 72 66
1.005315 -0.306510 -0.275382 94 72 66
1.007738 -0.381802 -0.261200 153 117 99
1.007596 -0.392524 -0.259251 151 119 96
1.009004 -0.268551 -0.286493 63 32 23
1.008947 -0.301129 -0.280750 65 36 27
0.993933 -0.560396 -0.226994 194 147 103
1.094616 -0.726812 -0.198074 117 70 38
1.094616 -0.726812 -0.198074 117 70 38
1.006123 -0.381335 -0.270127 156 128 117
0.999339 0.054881 -0.364419 134 98 80
1.001816 0.125893 -0.381382 63 34 30
1.001602 0.009805 -0.356579 123 92 83
0.999268 -0.002031 -0.354597 142 107 93
1.001070 0.082554 -0.373636 73 42 33
1.007181 -0.580373 -0.252140 65 34 11
0.995270 -0.011724 -0.376894 34 27 34
1.010661 0.134270 -0.410008 77 64 56
1.001234 -0.212219 -0.338922 55 43 55
0.993680 -0.563750 -0.265295 193 151 106
1.001829 -0.081833 -0.370202 105 84 82
1.000707 -0.055172 -0.379928 50 34 28
1.053700 -0.658748 -0.259316 255 205 185
0.998911 -0.086380 -0.374330 43 31 27
0.993521 -0.024071 -0.390048 128 96 83
1.031566 -0.584243 -0.277672 98 65 32
0.992674 -0.060319 -0.383686 112 86 70
0.985613 -0.078385 -0.379267 123 91 78
0.979714 0.125617 -0.427552 89 75 76
1.041379 -0.585344 -0.292919 78 50 26
0.946814 -0.018056 -0.414128 38 30 40
1.556380 -0.416755 -0.398443 135 103 90
0.964276 -0.064339 -0.407478 127 97 80
0.951673 -0.053993 -0.410170 110 83 73
0.947996 -0.071199 -0.407189 100 76 64
0.930333 -0.024398 -0.430943 140 101 87
1.173152 -0.539727 -0.357517 36 15 7
0.910289 -0.312181 -0.373268 166 122 109
0.970185 -0.422721 -0.363080 30 13 10
0.908979 0.009055 -0.454061 91 54 46
0.917959 -0.055078 -0.448614 149 117 104
0.889649 -0.003639 -0.467560 140 105 92
0.887232 -0.042544 -0.465627 99 88 90
0.881234 -0.018475 -0.472786 139 106 90
0.881234 -0.018475 -0.472786 139 106 90
0.876962 -0.124651 -0.457362 105 92 94
0.873647 0.017278 -0.485616 91 56 43
0.875187 -0.097282 -0.474610 148 112 94
0.875187 -0.097282 -0.474610 148 112 94
0.838275 -0.030066 -0.507041 145 106 91
0.837386 -0.020692 -0.509142 96 59 51
0.819797 -0.321041 -0.466909 112 76 66
0.819797 -0.321041 -0.466909 112 76 66
0.821571 0.042912 -0.536556 74 46 39
0.829599 -0.098169 -0.515063 120 94 88
0.829599 -0.098169 -0.515063 120 94 88
0.824207 -0.054742 -0.528272 58 40 33
0.825188 -0.111397 -0.517954 48 33 30
0.811862 0.031228 -0.543002 68 43 39
0.805348 -0.142325 -0.513133 162 123 108
0.799335 0.041109 -0.553206 117 83 70
0.795213 -0.029050 -0.543320 127 94 78
0.789058 0.006680 -0.554604 78 46 41
0.796485 0.102500 -0.580438 99 77 71
0.795218 0.118140 -0.584749 22 13 9
0.789522 -0.053177 -0.557589 148 113 99
0.778813 0.038544 -0.573400 117 86 77
0.774879 0.029123 -0.576601 131 94 80
0.759328 -0.265003 -0.531145 127 109 110
0.755293 -0.322298 -0.520328 65 54 62
0.749453 0.041196 -0.596014 150 112 94
0.743447 0.059243 -0.618992 104 82 77
0.742943 0.052050 -0.617692 93 73 72
