ply
format ascii 1.0
element vertex 1215
property float x
property float y
property float z
property uchar blue
property uchar green
property uchar red
end_header
-0.240311 -0.526315 2.441970 86 47 33
-0.474383 -2.373456 3.063154 148 85 57
-0.474383 -2.373456 3.063154 148 85 57
-0.249684 -1.935739 2.717195 173 129 88
-0.453353 -2.396541 3.068272 255 250 243
-0.457518 -2.347191 3.070125 255 252 247
-0.229605 -0.460748 2.448927 157 123 107
-0.203069 1.353707 2.090070 155 117 93
-0.204814 1.167181 2.140628 34 22 16
-0.162286 1.500300 2.054281 108 84 84
-0.183321 0.821677 2.223457 146 110 92
-0.181287 1.152513 2.179321 119 94 74
-0.175009 1.266616 2.156825 136 105 84
-0.173741 0.821102 2.240000 113 92 91
-0.187792 -0.476106 2.520012 155 119 103
-0.133358 1.467499 2.097800 76 50 44
-0.161656 0.306470 2.354376 48 20 20
-0.165102 -0.162402 2.450879 155 121 98
-0.145967 0.836079 2.266479 55 26 22
-0.145967 0.836079 2.266479 55 26 22
-0.147692 -0.188800 2.466236 67 30 22
-0.149473 0.399357 2.357125 125 98 78
-0.157311 1.842992 2.093837 179 115 90
-0.138051 0.430950 2.345938 167 122 108
-0.138679 1.246474 2.205289 39 20 15
-0.115491 1.327853 2.169360 154 114 95
-0.113557 1.511095 2.132452 104 82 84
-0.125817 -1.759096 2.785142 61 35 19
-0.105154 0.193481 2.388383 76 65 68
-0.117812 1.141253 2.225459 43 27 20
-0.110201 -1.823215 2.783852 94 53 28
-0.111420 1.291447 2.194348 43 25 18
-0.111420 1.291447 2.194348 43 25 18
-0.117471 0.321276 2.389169 149 117 94
-0.120978 0.367035 2.390512 148 120 103
-0.119102 1.141330 2.252576 37 23 17
-0.094636 1.321866 2.203328 154 116 92
-0.124428 -1.743207 2.835432 99 62 36
-0.097063 1.201773 2.252130 125 98 78
-0.061989 1.507491 2.153155 83 54 45
-0.057448 -0.458360 2.714201 78 55 59
-0.057448 -0.458360 2.714201 78 55 59
-0.065340 -0.537037 2.798427 57 36 38
-0.025005 1.710584 2.312835 22 10 8
-0.045109 1.554907 2.392844 84 66 55
-0.072787 1.050085 2.560463 89 60 55
0.055853 1.217792 2.523168 87 53 47
0.089359 -0.485433 2.831972 51 34 47
0.114500 -0.406332 2.821539 162 124 106
0.122371 -0.300856 2.817947 77 43 37
0.135446 0.419406 2.692744 148 108 90
0.135446 0.419406 2.692744 148 108 90
0.166690 -0.203285 2.789791 138 106 93
0.119095 1.371524 2.530506 118 86 73
0.121965 1.407960 2.522336 119 89 78
0.151935 0.452418 2.686516 63 38 34
0.128712 1.626804 2.485163 110 84 72
0.155786 0.638085 2.658579 71 46 42
0.165334 1.435775 2.506847 100 73 59
0.238511 -0.201407 2.756326 125 102 100
0.173556 1.665158 2.467296 118 88 69
0.257248 -0.491239 2.818942 52 35 49
0.270002 -0.337544 2.800000 162 126 108
0.297571 0.296562 2.646957 56 46 62
-0.169388 -1.343460 3.658300 101 44 45
0.294054 -0.444178 2.820809 65 38 34
0.294054 -0.444178 2.820809 65 38 34
0.299295 -0.375093 2.804373 72 46 40
0.302634 -0.304756 2.791837 81 52 38
0.302467 -0.236889 2.783459 78 49 42
0.358084 -0.481174 2.785539 95 70 66
0.327673 -0.338210 2.802311 156 119 99
0.373725 -0.373947 2.787312 81 52 37
0.407813 -0.522171 2.775925 74 62 74
0.378227 -0.306368 2.773233 85 50 36
0.900370 1.468786 1.649716 110 84 72
0.936972 1.502201 1.635656 118 88 69
-0.828852 -0.237873 -3.600534 63 47 54
-0.841658 0.570577 -3.647516 76 43 34
-0.840172 0.653372 -3.650604 171 134 114
-0.840288 -0.828928 -3.537069 126 82 65
-0.852909 -1.509445 -3.485606 45 44 53
-0.855936 -1.523387 -3.484195 110 105 107
-0.837389 -0.848842 -3.524852 130 85 71
-0.850864 -1.529243 -3.474424 59 52 57
-0.836862 -0.845938 -3.509652 166 126 107
-0.797388 0.835349 -3.618870 58 41 38
-0.797388 0.835349 -3.618870 58 41 38
-0.855080 -1.713445 -3.444075 130 92 80
-0.844248 -1.068627 -3.481284 166 123 104
-0.838862 -0.885484 -3.490986 114 74 55
-0.836719 -1.047183 -3.473137 122 81 72
-0.838073 -0.837092 -3.485699 90 57 42
-0.838073 -0.837092 -3.485699 90 57 42
-0.812836 0.053328 -3.541547 120 75 61
-0.836655 -0.789284 -3.481977 85 58 48
-0.836521 -0.855027 -3.475999 145 108 100
-0.836521 -0.855027 -3.475999 145 108 100
-0.835576 0.661346 -3.569255 114 56 37
-0.837923 -0.801630 -3.464695 102 73 66
-0.835085 0.637977 -3.559187 76 26 6
-0.835085 0.637977 -3.559187 76 26 6
-0.835558 0.622927 -3.542658 189 121 102
-0.833075 -0.819206 -3.434182 93 61 56
-0.808740 0.120274 -3.496825 165 122 105
-0.835026 0.640592 -3.534252 59 20 11
-0.811057 0.092691 -3.490773 110 70 58
-0.793615 0.765316 -3.531801 91 57 44
-0.809989 0.035520 -3.481189 117 76 61
-0.809989 0.035520 -3.481189 117 76 61
-0.864014 -0.656757 -3.435039 166 133 114
-0.826588 0.673703 -3.524044 174 137 115
-0.818006 -0.108304 -3.465691 90 76 78
-0.833233 -1.007708 -3.400809 122 79 70
-0.833286 -0.851519 -3.411377 128 105 97
-0.807036 0.150273 -3.477926 98 60 55
-0.807036 0.150273 -3.477926 98 60 55
-0.844125 -0.927289 -3.401754 98 63 50
-0.868898 -0.665244 -3.423510 85 45 27
-0.832116 -0.855166 -3.399980 96 61 51
-0.835114 -0.835715 -3.397922 154 119 106
-0.816516 -0.103026 -3.444641 107 67 62
-0.810255 0.056715 -3.451119 118 79 65
-0.832345 0.648479 -3.494514 46 29 20
-0.832345 0.648479 -3.494514 46 29 20
-0.832410 -0.802005 -3.381856 154 115 100
-0.832451 -0.907038 -3.367753 139 102 88
-0.808850 0.064882 -3.435322 149 113 95
-0.829882 -0.817502 -3.368748 111 72 57
-0.813244 0.136144 -3.436730 158 117 94
-0.827169 -0.781401 -3.370485 97 61 53
-0.858465 -0.563660 -3.383850 197 149 131
-0.858465 -0.563660 -3.383850 197 149 131
-0.829743 -0.893369 -3.355298 69 48 47
-0.806912 0.090745 -3.417309 103 64 49
-0.862400 -0.686698 -3.365945 179 131 113
-0.828672 -0.866862 -3.347020 147 111 95
-0.825135 -0.812942 -3.341033 101 55 47
-0.785409 0.733378 -3.440338 42 31 47
-0.785409 0.733378 -3.440338 42 31 47
-0.827159 -0.774072 -3.327142 91 56 46
-0.827159 -0.774072 -3.327142 91 56 46
-0.867261 -1.324619 -3.284755 110 55 42
-0.867261 -1.324619 -3.284755 110 55 42
-0.822340 -0.797834 -3.315039 118 76 64
-0.827580 -0.863163 -3.305962 155 118 104
-0.858066 -0.564146 -3.322577 172 132 114
-0.788896 0.760055 -3.414546 87 55 44
-0.820731 -0.852089 -3.290521 153 117 99
-0.825434 -0.779933 -3.295516 168 122 104
-0.824744 -0.884760 -3.286371 169 132 118
-0.794262 0.192314 -3.361268 66 46 58
-0.820274 -0.829413 -3.283975 152 118 102
-0.795893 0.598577 -3.387883 92 56 46
-0.866956 -1.402944 -3.242337 147 100 79
-0.823356 -0.839818 -3.275101 106 69 65
-0.823593 -0.902476 -3.269962 114 75 66
-0.831151 -0.980519 -3.258924 163 124 110
-0.831151 -0.980519 -3.258924 163 124 110
-0.822000 -0.812954 -3.270542 89 55 55
-0.818486 -0.788526 -3.269083 99 62 54
-0.825509 -0.776444 -3.263059 96 66 65
-0.825509 -0.776444 -3.263059 96 66 65
-0.798383 0.073359 -3.324115 92 60 54
-0.798383 0.073359 -3.324115 92 60 54
-0.793932 0.358854 -3.344676 101 64 50
-0.799223 0.208827 -3.327443 167 124 109
-0.816278 -0.764874 -3.252349 82 56 56
-0.816278 -0.764874 -3.252349 82 56 56
-0.799512 0.121582 -3.318416 80 53 43
-0.821891 -0.756507 -3.247808 95 68 64
-0.799444 0.278601 -3.325618 100 64 54
-0.804293 -0.190743 -3.286806 65 51 62
-0.806019 0.197826 -3.312822 96 58 46
-0.814021 -0.750513 -3.239206 87 65 70
-0.782250 0.797683 -3.342342 96 61 51
-1.098998 -2.067678 -3.138591 100 57 40
-0.818184 -0.794197 -3.210898 135 93 74
-0.786614 0.517062 -3.309028 146 112 96
-0.783714 0.689565 -3.321352 88 62 55
-0.819808 -0.773978 -3.183474 128 88 70
-0.791350 0.367830 -3.270893 97 66 57
-0.820938 -0.997133 -3.150751 134 91 72
-0.815775 -1.044141 -3.146459 56 36 48
-0.797106 0.058686 -3.232145 94 61 42
-0.797106 0.058686 -3.232145 94 61 42
-0.713120 -1.789760 -3.063343 109 85 65
-0.832608 -1.583914 -3.078712 76 53 67
-0.832608 -1.583914 -3.078712 76 53 67
-0.800059 -0.020298 -3.201342 157 118 104
-0.812415 -0.769761 -3.137378 132 90 71
-0.796371 -0.066894 -3.179774 85 58 44
-0.711642 -1.784428 -3.030827 118 94 74
-0.778892 0.611950 -3.228073 144 113 98
-0.780494 0.720295 -3.224205 151 117 101
-0.788078 0.300767 -3.187946 96 64 59
-0.797852 -0.284307 -3.133219 109 65 52
-0.786117 0.397585 -3.170499 154 120 107
-0.768350 0.912681 -3.182333 143 113 96
-0.823275 -1.471580 -2.985047 145 112 96
-0.823275 -1.471580 -2.985047 145 112 96
-0.769050 0.813283 -3.168151 145 114 93
-0.812527 -1.400432 -2.982600 152 118 102
-0.777230 0.395585 -3.108151 95 63 58
-0.771982 0.720948 -3.135314 90 62 55
-0.821049 -1.454771 -2.941081 106 113 122
-0.774043 0.652885 -3.117352 144 113 98
-0.776252 0.329953 -3.088895 156 123 103
-0.774788 0.558276 -3.108256 92 63 56
-0.822365 -1.552793 -2.927903 101 61 49
-0.812282 -1.373847 -2.942086 55 53 73
-0.819975 -1.440396 -2.935887 62 52 68
-0.820738 -1.420034 -2.936910 53 44 57
-0.820094 -1.420114 -2.936740 53 44 57
-0.813728 -1.427267 -2.934933 113 110 119
-0.782490 0.397382 -3.083291 94 64 59
-0.777195 0.493800 -3.090481 155 121 105
-0.784734 0.237435 -3.058400 94 65 56
-0.825086 -1.540895 -2.905525 152 113 98
-0.751810 0.662667 -3.062742 133 102 79
-0.819148 -1.443277 -2.880218 103 109 116
-0.818414 -1.505274 -2.873829 89 85 96
-0.755350 0.926168 -3.080725 29 17 13
-0.814755 -1.446597 -2.876345 57 56 65
-0.756299 0.583623 -3.050745 136 103 83
-0.810175 -1.412605 -2.871141 57 57 73
-0.822508 -1.424809 -2.870298 114 117 121
-0.757756 0.503106 -3.035506 142 109 89
-0.815781 -1.493900 -2.862840 104 103 113
-0.815781 -1.493900 -2.862840 104 103 113
-0.754589 0.729762 -3.051663 40 27 19
-0.754589 0.729762 -3.051663 40 27 19
-0.754041 0.688453 -3.043522 37 23 17
-0.754041 0.688453 -3.043522 37 23 17
-0.758855 0.631534 -3.035153 34 24 14
-0.758855 0.631534 -3.035153 34 24 14
-0.753724 0.828069 -3.051892 103 75 68
-0.758832 0.568700 -3.025489 47 32 23
-0.755141 0.838965 -3.048320 51 27 29
-0.750323 0.526776 -3.018227 124 97 70
-0.750323 0.526776 -3.018227 124 97 70
-0.761384 0.261181 -2.994969 147 113 89
-0.745576 0.968551 -3.054353 100 90 106
-0.755579 0.129563 -2.979295 138 102 86
-0.762242 0.484061 -3.009862 41 29 19
-0.762242 0.484061 -3.009862 41 29 19
-0.761938 0.161378 -2.981041 99 73 59
-0.815307 -1.479151 -2.836597 98 100 108
-0.818849 -1.503011 -2.833755 55 55 71
-0.755071 0.752918 -3.027936 137 102 92
-0.753529 0.832718 -3.033333 143 110 95
-0.753529 0.832718 -3.033333 143 110 95
-0.813613 -1.454784 -2.829440 38 38 50
-0.768824 0.170036 -2.960599 47 33 21
-0.768824 0.170036 -2.960599 47 33 21
-0.808114 -1.466761 -2.816080 77 83 96
-0.809269 -1.401392 -2.805273 66 56 68
-0.760430 0.952004 -3.012488 78 53 49
-0.807257 -1.333229 -2.807493 102 70 71
-0.756641 0.066859 -2.928343 45 24 23
-0.756641 0.066859 -2.928343 45 24 23
-0.810248 -1.423758 -2.796088 65 55 68
-0.814731 -1.516298 -2.778366 160 121 107
-0.755590 0.940955 -2.993735 144 111 96
-0.808206 -0.970390 -2.813321 158 122 106
-0.775308 0.118399 -2.910889 86 52 39
-0.807663 -1.487179 -2.765480 56 54 66
-0.807663 -1.487179 -2.765480 56 54 66
-0.813671 -1.614015 -2.752163 53 27 27
-0.774188 -0.008469 -2.894800 146 108 96
-0.772349 0.423611 -2.925519 92 62 51
-0.763488 0.749997 -2.946575 85 55 44
-0.754996 0.845437 -2.952257 152 122 105
-0.780184 0.034110 -2.878632 158 119 105
-0.763672 0.264898 -2.896416 93 58 54
-0.783423 0.043552 -2.875944 162 119 104
-0.767335 0.588481 -2.922379 90 61 52
-0.773428 0.208774 -2.879738 148 115 95
-0.772660 0.426753 -2.897561 95 62 53
-0.778339 -0.012465 -2.857288 98 63 50
-0.778339 -0.012465 -2.857288 98 63 50
-0.769235 0.196312 -2.866474 80 53 43
-0.772003 0.361566 -2.880761 163 129 113
-0.777862 -0.053601 -2.841148 111 69 56
-0.643066 -1.687401 -2.685867 86 66 49
-0.786988 -0.582125 -2.787766 151 113 101
-0.754801 0.831912 -2.881277 150 115 101
-0.801894 -1.412002 -2.670498 134 100 87
-0.798759 -1.199932 -2.688464 156 119 105
-0.761983 0.522338 -2.841567 91 58 49
-0.757439 0.672565 -2.855365 153 120 101
-0.754774 0.844181 -2.867456 87 57 46
-0.754065 0.791923 -2.861821 96 61 48
-0.764654 0.361620 -2.814145 99 63 57
-0.759785 0.780499 -2.850357 152 117 104
-0.797706 -1.439994 -2.636953 95 63 52
-0.756860 0.618514 -2.824470 160 127 111
-0.775965 -0.121123 -2.754382 112 79 70
-0.802039 -1.402834 -2.618090 97 106 115
-0.799131 -1.385735 -2.610510 64 58 69
-0.808044 -1.490139 -2.582652 154 114 102
-0.799902 -1.457818 -2.560212 52 53 67
-0.788555 -1.511297 -2.551899 146 110 92
-0.748637 0.768185 -2.773301 158 125 106
-0.765154 0.005223 -2.698751 73 74 84
-0.765154 0.005223 -2.698751 73 74 84
-0.749969 0.711019 -2.764784 155 116 102
-0.794997 -1.366475 -2.558741 55 57 68
-0.752001 0.607143 -2.747237 160 126 110
-0.753318 0.552839 -2.740532 163 125 107
-0.796960 -1.314880 -2.553601 63 63 77
-0.751420 0.875753 -2.766354 159 123 105
-0.757840 0.294523 -2.705940 97 61 53
-0.603767 -1.698720 -2.510999 60 33 19
-0.759634 0.283283 -2.694730 162 127 113
-0.756288 0.457449 -2.706949 97 64 55
-0.761838 0.296156 -2.682011 97 63 57
-0.758084 0.392193 -2.690540 166 132 116
-0.797097 -1.450412 -2.507287 56 58 68
-0.768982 0.218608 -2.661492 106 75 66
-0.789666 -1.415873 -2.485881 77 87 97
-0.744709 0.803624 -2.699953 158 121 99
-0.789793 -1.348845 -2.482568 70 64 75
-0.790210 -1.304089 -2.485756 64 58 75
-0.750365 0.642527 -2.675833 163 126 104
-0.793348 -1.372274 -2.473557 68 60 70
-0.747804 0.711838 -2.679938 90 58 53
-0.742210 0.866760 -2.687885 145 112 97
-0.752637 0.389639 -2.637130 102 64 59
-0.750594 0.553086 -2.653221 104 67 63
-0.755350 0.307247 -2.625018 105 65 60
-0.755350 0.307247 -2.625018 105 65 60
-0.743127 0.854864 -2.670334 44 29 50
-0.757335 0.222044 -2.602497 130 93 79
-0.781527 -0.559657 -2.520729 162 122 104
-0.746048 0.187048 -2.596275 171 134 120
-0.755889 0.261235 -2.599340 177 133 116
-0.776034 -0.468442 -2.524543 121 79 67
-0.752292 0.222221 -2.591877 119 85 69
-0.752292 0.222221 -2.591877 119 85 69
-0.755048 0.239460 -2.585703 84 56 49
-0.773297 -0.464152 -2.502034 136 92 79
-0.755155 0.218575 -2.572094 150 116 103
-0.774025 -0.660289 -2.476283 145 99 82
-0.761135 -0.074280 -2.534273 73 47 47
-0.760152 -0.003900 -2.535065 182 139 120
-0.753128 0.268671 -2.549095 172 128 111
-0.765814 -0.703710 -2.426605 160 121 107
-0.774722 0.812222 -2.581711 77 47 36
-0.735017 0.917788 -2.591015 93 61 48
-0.752943 0.204918 -2.513946 92 60 54
-0.776875 -0.928541 -2.392409 70 43 46
-0.776875 -0.928541 -2.392409 70 43 46
-0.778271 0.837179 -2.573279 184 141 124
-0.770758 -0.634332 -2.420029 160 119 104
-0.771826 -0.670337 -2.415787 96 63 48
-0.756967 0.018416 -2.486873 122 79 62
-0.732615 0.905155 -2.578941 154 120 104
-0.764346 0.011958 -2.476852 140 105 92
-0.775953 -0.849685 -2.386403 184 140 123
-0.770037 -0.628007 -2.403070 126 91 81
-0.750076 0.270935 -2.492965 130 86 73
-0.769188 -0.643000 -2.393673 165 126 112
-0.800385 -0.479512 -2.407192 67 33 17
-0.802746 -0.508741 -2.402137 67 32 18
-0.754935 0.016376 -2.459106 149 115 102
-0.754935 0.016376 -2.459106 149 115 102
-0.749278 0.240190 -2.477750 166 130 114
-0.762398 -0.682840 -2.380073 172 129 114
-0.796353 -1.033461 -2.339214 110 77 84
-0.767501 -0.630661 -2.382378 91 66 70
-0.748567 0.222083 -2.466311 119 75 58
-0.765529 -0.628904 -2.373596 90 65 69
-0.752265 0.019557 -2.440980 161 127 111
-0.747840 -0.016064 -2.435344 156 119 105
-0.748412 0.215313 -2.454998 174 134 116
-0.731647 1.009053 -2.537897 62 43 36
-0.731647 1.009053 -2.537897 62 43 36
-0.766467 -0.826204 -2.340897 138 94 77
-0.746924 0.251605 -2.455327 155 121 108
-0.793620 -0.529861 -2.369018 53 28 26
-0.766821 -0.650319 -2.356633 98 70 70
-0.773031 0.843504 -2.514036 186 141 127
-0.768518 -0.758637 -2.343894 167 128 114
-0.796023 -0.404115 -2.379370 186 140 122
-0.765803 -0.668375 -2.351164 102 69 66
-0.770891 -0.833238 -2.332808 166 130 114
-0.764646 -0.655858 -2.351578 149 127 129
-0.748170 0.210594 -2.444271 136 93 74
-0.796060 -0.486866 -2.365147 180 143 129
-0.796060 -0.486866 -2.365147 180 143 129
-0.808002 -0.981145 -2.309741 117 70 48
-0.795901 -0.558225 -2.353824 115 85 80
-0.795901 -0.558225 -2.353824 115 85 80
-0.795901 -0.558225 -2.353824 115 85 80
-0.791709 -1.428260 -2.261279 58 39 48
-0.769221 -0.699171 -2.337848 96 77 80
-0.771040 -0.756123 -2.327208 100 66 50
-0.767070 -0.830062 -2.316042 167 129 117
-0.797982 -0.547308 -2.342389 56 28 17
-0.770676 0.830032 -2.490575 103 45 33
-0.770676 0.830032 -2.490575 103 45 33
-0.764543 -0.685319 -2.326205 114 79 69
-0.773835 -1.494272 -2.237905 133 91 78
-0.773261 0.775026 -2.480008 81 29 17
-0.770102 0.805840 -2.480165 79 29 11
-0.749848 0.066837 -2.399041 110 76 70
-0.762313 -0.739649 -2.311663 118 79 70
-0.743924 0.284099 -2.420626 170 127 112
-0.782478 -0.085305 -2.376756 167 117 105
-0.744354 0.261357 -2.415435 113 67 59
-0.805948 -1.025230 -2.273456 190 147 130
-0.745993 0.205708 -2.405133 121 79 66
-0.770950 0.822029 -2.469273 205 137 118
-0.770950 0.822029 -2.469273 205 137 118
-0.770907 0.791203 -2.464531 206 137 120
-0.793432 -0.464768 -2.327880 62 32 27
-0.792766 -0.495884 -2.322408 64 34 29
-0.762960 -0.688905 -2.302355 132 87 76
-0.762960 -0.688905 -2.302355 132 87 76
-0.750864 -0.012197 -2.371503 166 120 109
-0.761963 -0.721245 -2.293801 67 49 62
-0.769532 0.808864 -2.455090 68 22 11
-0.762411 -0.731525 -2.288262 155 126 112
-0.739762 0.306172 -2.401489 114 78 68
-0.763090 -0.613922 -2.298213 113 72 63
-0.763090 -0.613922 -2.298213 113 72 63
-0.768492 0.835546 -2.453645 85 26 10
-0.781150 -0.509521 -2.306675 169 124 121
-0.743693 0.202755 -2.385281 170 127 112
-0.767892 0.780629 -2.445154 88 33 30
-0.765171 -0.884480 -2.265401 98 63 59
-0.762098 -0.696144 -2.283404 134 91 76
-0.769201 0.708269 -2.434726 60 29 30
-0.777323 -1.477004 -2.195354 97 56 47
-0.777323 -1.477004 -2.195354 97 56 47
-0.773985 0.518846 -2.405960 94 60 47
-0.760440 -0.653092 -2.278978 168 132 116
-0.745287 0.227449 -2.374926 122 77 66
-0.745287 0.227449 -2.374926 122 77 66
-0.764962 -0.625371 -2.271614 182 138 121
-0.764962 -0.625371 -2.271614 182 138 121
-0.768963 0.834328 -2.429838 71 42 28
-0.761295 -0.642811 -2.267391 116 69 61
-0.763101 -0.733362 -2.256847 194 150 133
-0.763101 -0.733362 -2.256847 194 150 133
-0.743126 0.233792 -2.359173 167 124 107
-0.789246 -0.352603 -2.288589 90 64 47
-0.762681 -0.695363 -2.253048 114 75 60
-0.802886 -0.943501 -2.223003 209 163 145
-0.811167 -1.388190 -2.172815 121 72 58
-0.793800 -0.422355 -2.277742 58 36 31
-0.794530 -0.502233 -2.264740 57 33 27
-0.760945 -0.607502 -2.250720 117 79 67
-0.760945 -0.607502 -2.250720 117 79 67
-0.768507 0.668283 -2.388374 38 26 24
-0.786090 -0.360376 -2.272599 84 57 43
-0.762373 -0.685451 -2.238658 113 73 61
-0.740780 0.264861 -2.342151 124 81 66
-0.721906 1.034376 -2.427896 152 118 105
-0.766564 -0.798980 -2.223347 157 106 90
-0.747719 0.303142 -2.343597 161 116 102
-0.724369 0.935097 -2.412249 159 122 108
-0.759673 -0.607322 -2.238761 176 139 125
-0.788353 -0.530195 -2.241906 55 30 26
-0.761411 -0.670438 -2.224594 114 76 64
-0.792975 -0.384248 -2.252025 190 146 129
-0.741813 0.041859 -2.300778 160 126 110
-0.741813 0.041859 -2.300778 160 126 110
-0.789664 -0.466841 -2.239781 176 141 127
-0.720168 -1.684328 -2.110200 125 100 90
-0.724144 0.947129 -2.399907 97 63 57
-0.760527 -0.619934 -2.221357 179 133 115
-0.760527 -0.619934 -2.221357 179 133 115
-0.773135 -1.523808 -2.120592 109 84 80
-0.739024 0.223836 -2.314531 155 123 112
-0.739024 0.223836 -2.314531 155 123 112
-0.761986 -0.628375 -2.217696 185 142 123
-0.760194 -0.597438 -2.207059 173 131 118
-0.763507 -0.809156 -2.181392 168 132 116
-0.768790 -1.449811 -2.107108 103 62 53
-0.798991 -0.935028 -2.160688 193 146 132
-0.798991 -0.935028 -2.160688 193 146 132
-0.771805 -1.461621 -2.101949 158 120 102
-0.758321 -0.813186 -2.173660 136 94 81
-0.758619 -0.805275 -2.164633 172 135 121
-0.771519 -1.458685 -2.089833 100 54 43
-0.799976 -0.941736 -2.145012 120 69 49
-0.757592 -0.810471 -2.155920 127 83 70
-0.723333 0.918756 -2.350276 143 108 95
-0.729329 0.357130 -2.286096 72 55 69
-0.757268 -0.594574 -2.176420 99 69 68
-0.755521 -0.802170 -2.149314 175 136 122
-0.724426 0.778772 -2.326902 165 128 114
-0.756512 -0.603891 -2.168900 161 132 127
-0.800515 -1.375033 -2.077709 120 70 52
-0.798558 -1.230458 -2.087218 195 150 129
-0.759193 -0.547469 -2.165845 78 55 69
-0.722252 0.849732 -2.324634 101 62 53
-0.730562 0.536382 -2.287318 171 132 117
-0.798181 -1.265517 -2.077463 124 80 57
-0.726803 0.769670 -2.311715 99 63 57
-0.768049 -1.503382 -2.051709 70 42 41
-0.726813 0.689420 -2.298578 97 62 52
-0.729410 0.608224 -2.286134 107 67 55
-0.729995 0.507069 -2.274573 176 133 116
-0.729995 0.507069 -2.274573 176 133 116
-0.737480 -0.021837 -2.210483 57 34 49
-0.739587 0.294759 -2.243584 101 69 56
-0.756697 -0.623343 -2.136860 128 81 67
-0.800288 -1.370745 -2.046498 111 66 52
-0.719265 0.934786 -2.310549 88 56 50
-0.772861 -1.389909 -2.034887 67 50 59
-0.722083 0.613183 -2.257090 101 66 56
-0.754987 -0.604545 -2.113526 130 87 72
-0.750835 -0.864685 -2.079833 121 100 108
-0.723213 0.451713 -2.231869 101 65 57
-0.737104 0.247904 -2.205636 179 136 121
-0.752982 -0.853993 -2.077513 97 63 64
-0.719180 0.880624 -2.278614 97 60 46
-0.729175 0.441549 -2.219453 160 127 112
-0.718127 0.774209 -2.258362 93 61 56
-0.727959 0.386117 -2.212450 165 127 109
-0.732993 0.112965 -2.123214 93 60 51
-0.730641 0.183402 -2.128122 171 128 111
-0.712481 0.868856 -2.204138 93 60 57
-0.712163 0.965404 -2.212173 161 122 108
-0.714019 0.859626 -2.191318 158 125 110
-0.715728 0.803631 -2.184437 160 124 106
-0.742828 0.088803 -2.095159 138 106 100
-0.711979 0.976525 -2.198790 102 63 54
-0.725167 0.385147 -2.125337 102 65 61
-0.729333 0.111098 -2.088979 67 71 89
-0.723245 0.374876 -2.113467 172 136 120
-0.723542 0.332922 -2.107126 168 131 117
-0.716248 0.710365 -2.151537 94 62 56
-0.730401 0.148528 -2.078070 69 62 69
-0.722429 0.548617 -2.125512 99 68 59
-0.729551 0.162083 -2.075070 163 126 112
-0.722504 0.322183 -2.092126 98 66 60
-0.752107 -1.239836 -1.882262 63 56 69
-0.755799 -1.203651 -1.881547 59 58 78
-0.732009 0.127541 -2.042124 114 116 124
-0.644391 -1.593484 -1.847413 94 70 52
-0.726937 0.136515 -2.041309 102 104 112
-0.715040 0.964445 -2.123694 95 60 56
-0.709500 0.964402 -2.123287 95 60 56
-0.853156 -1.703940 -1.778755 58 30 23
-0.712003 0.803409 -2.096912 95 61 55
-0.638489 -1.586952 -1.817123 105 81 59
-0.709202 0.899278 -2.104063 157 121 105
-0.716706 0.481300 -2.046367 98 65 62
-0.715728 0.577679 -2.053038 164 130 107
-0.708034 0.966571 -2.097803 92 61 52
-0.750850 -1.306104 -1.817694 106 111 120
-0.710176 0.752211 -2.066472 103 66 52
-0.701022 -1.640253 -1.776217 58 30 23
-0.753791 -1.451330 -1.791248 73 40 31
-0.713038 0.643975 -2.045187 95 63 58
-0.750800 -1.260946 -1.808013 57 51 70
-0.750800 -1.260946 -1.808013 57 51 70
-0.710003 0.740899 -2.055052 159 129 110
-0.710827 0.579607 -2.027389 161 129 110
-0.752211 -1.450403 -1.774576 132 96 88
-0.711926 0.417041 -2.002114 167 132 119
-0.748207 -1.330030 -1.753345 55 55 67
-0.704862 0.898334 -2.017975 92 57 53
-0.702672 0.995460 -2.025239 158 119 104
-0.741612 -1.186059 -1.749371 67 62 77
-0.741612 -1.186059 -1.749371 67 62 77
-0.702804 0.833627 -1.998306 159 123 107
-0.702216 0.889894 -2.004833 153 118 104
-0.706770 0.731756 -1.978842 160 127 112
-0.703287 0.845160 -1.985652 96 61 48
-0.702659 0.900005 -1.990980 89 60 51
-0.715269 0.404329 -1.927267 163 128 114
-0.715755 0.365395 -1.921633 168 129 115
-0.706987 0.684727 -1.958997 108 67 58
-0.706432 0.741129 -1.965103 96 64 59
-0.711141 0.524958 -1.933544 103 66 52
-0.708670 0.578530 -1.939303 93 64 57
-0.722569 0.125151 -1.879236 143 124 116
-0.713020 0.353587 -1.906906 93 63 58
-0.727288 -0.314662 -1.820625 162 127 114
-0.738063 -1.260537 -1.693031 50 50 64
-0.738063 -1.260537 -1.693031 50 50 64
-0.736532 -0.974263 -1.714430 157 123 117
-0.736532 -0.974263 -1.714430 157 123 117
-0.740276 -1.221617 -1.680227 62 62 76
-0.740276 -1.221617 -1.680227 62 62 76
-0.717420 0.189798 -1.859948 101 79 84
-0.740075 -1.242068 -1.669948 63 61 73
-0.740075 -1.242068 -1.669948 63 61 73
-0.745542 -1.337416 -1.655430 175 130 116
-0.729928 -0.607192 -1.737413 121 84 80
-0.721196 0.150679 -1.827206 68 68 84
-0.721196 0.150679 -1.827206 68 68 84
-0.702996 0.672650 -1.885080 100 63 59
-0.737798 -1.226655 -1.637939 60 67 76
-0.735445 -1.243438 -1.630732 59 60 70
-0.709668 0.445173 -1.840482 163 128 108
-0.702552 0.619195 -1.854593 101 64 56
-0.733123 -1.202729 -1.617163 66 53 67
-0.695396 0.930554 -1.894217 150 115 101
-0.731714 -1.290848 -1.577920 75 79 90
-0.693965 0.923446 -1.859665 92 57 53
-0.696928 0.843904 -1.846196 91 57 57
-0.693463 0.613692 -1.815874 153 118 98
-0.696915 0.764639 -1.833211 91 61 56
-0.712663 -0.330940 -1.689026 139 98 83
-0.724049 -0.458421 -1.670309 184 135 119
-0.697732 0.682489 -1.820389 94 62 57
-0.705573 0.335373 -1.753586 105 70 57
-0.716967 -0.325155 -1.663390 137 93 80
-0.710950 0.083856 -1.712318 178 135 120
-0.709494 0.059313 -1.696669 74 50 58
-0.701520 0.442108 -1.743644 75 57 70
-0.719174 -0.741876 -1.565146 137 92 81
-0.719174 -0.741876 -1.565146 137 92 81
-0.717711 -0.584283 -1.581157 122 80 68
-0.714327 -0.492956 -1.567782 111 78 75
-0.734454 0.537381 -1.699889 73 47 33
-0.713258 -0.551792 -1.548232 182 138 121
-0.742789 0.004452 -1.613960 80 51 36
-0.742789 0.004452 -1.613960 80 51 36
-0.732588 -1.288336 -1.430048 62 42 54
-0.711880 -0.537101 -1.521498 105 75 74
-0.711880 -0.537101 -1.521498 105 75 74
-0.738619 0.043652 -1.590675 186 140 123
-0.738619 0.043652 -1.590675 186 140 123
-0.762388 -1.158409 -1.424480 123 77 59
-0.741629 -0.038476 -1.577904 189 154 134
-0.714311 -0.627740 -1.502961 169 131 113
-0.741879 -0.183768 -1.554626 193 153 135
-0.699738 0.355261 -1.633440 103 62 47
-0.714480 -0.567428 -1.505537 96 79 88
-0.712692 -0.528976 -1.499651 122 78 65
-0.699735 0.385309 -1.621851 151 116 102
-0.708275 -0.532610 -1.492059 173 136 122
-0.732793 0.561115 -1.633255 77 46 37
-0.711288 -0.583039 -1.483769 86 59 68
-0.755440 -1.118394 -1.402074 196 148 130
-0.739578 0.014894 -1.556592 86 54 41
-0.710861 -0.604694 -1.478227 110 68 56
-0.710861 -0.604694 -1.478227 110 68 56
-0.755630 -1.198732 -1.388803 184 143 128
-0.750319 -0.415118 -1.489733 69 58 50
-0.750319 -0.415118 -1.489733 69 58 50
-0.745599 -0.298845 -1.504825 148 101 79
-0.711098 -0.575930 -1.472076 152 123 116
-0.707018 -0.588025 -1.462598 69 50 65
-0.707136 -0.560656 -1.461211 174 135 121
-0.695678 0.418723 -1.587276 172 128 111
-0.695678 0.418723 -1.587276 172 128 111
-0.724394 0.816446 -1.633891 81 29 16
-0.698759 0.159041 -1.548342 116 79 71
-0.707341 -0.616860 -1.440779 110 68 61
-0.707341 -0.616860 -1.440779 110 68 61
-0.724232 0.762822 -1.623424 90 41 31
-0.705283 -0.520292 -1.446457 167 131 115
-0.693130 0.443961 -1.568236 91 59 54
-0.737442 -0.414500 -1.440294 54 27 23
-0.740588 -0.155266 -1.472020 59 24 11
-0.694289 0.195876 -1.527896 177 136 121
-0.731149 0.830509 -1.602141 148 113 99
-0.735458 0.025552 -1.490387 81 54 40
-0.705681 -0.471284 -1.420485 110 76 63
-0.705681 -0.471284 -1.420485 110 76 63
-0.740545 -0.402455 -1.418388 61 49 45
-0.740545 -0.402455 -1.418388 61 49 45
-0.734529 0.041444 -1.476190 89 55 42
-0.732819 -0.029982 -1.462678 66 41 39
-0.693152 0.388110 -1.526014 105 70 57
-0.733647 -0.090068 -1.442093 188 151 131
-0.707030 -1.379406 -1.269638 47 33 37
-0.734924 -0.163358 -1.430399 193 150 135
-0.750465 -0.333106 -1.402621 189 147 128
-0.750465 -0.333106 -1.402621 189 147 128
-0.750465 -0.333106 -1.402621 189 147 128
-0.705775 -0.518224 -1.386742 125 83 71
-0.704806 -0.518051 -1.386783 125 83 71
-0.704806 -0.518051 -1.386783 125 83 71
-0.738497 -0.264275 -1.414118 197 151 133
-0.738497 -0.264275 -1.414118 197 151 133
-0.717204 -1.318630 -1.259455 121 73 61
-0.742558 -0.866757 -1.313896 195 152 135
-0.757717 -0.389007 -1.376619 36 18 19
-0.664636 -1.539878 -1.232116 136 105 90
-0.728138 0.537117 -1.502213 74 47 37
-0.714535 -1.361025 -1.237482 150 108 95
-0.741791 -0.395569 -1.361338 66 53 45
-0.688289 0.489876 -1.455635 64 51 67
-0.697262 -0.492125 -1.304262 137 94 79
-0.692960 -0.429690 -1.306191 101 80 89
-0.696784 -0.493253 -1.293869 190 147 130
-0.696709 -0.516271 -1.279735 132 92 80
-0.660328 -1.530680 -1.136777 69 36 27
-0.695705 -0.688475 -1.240604 141 95 84
-0.660254 -1.528567 -1.121879 75 37 25
-0.639878 0.506519 -1.384238 62 42 41
-0.705008 -1.196004 -1.070784 110 75 62
-0.690520 -0.440602 -1.173786 113 77 61
-0.692578 -0.202762 -1.204809 95 67 66
-0.680404 -0.253643 -1.195254 119 114 115
-0.700894 -1.341351 -1.031474 53 33 38
-0.682687 -0.211571 -1.198579 105 108 112
-0.698623 -1.215788 -1.047849 69 66 81
-0.698623 -1.215788 -1.047849 69 66 81
-0.698623 -1.215788 -1.047849 69 66 81
-0.645718 -1.497766 -0.996641 132 99 83
-0.675410 -0.363326 -1.133087 38 32 33
-0.420454 0.203779 -1.271733 138 107 92
-0.698979 -1.069548 -0.992442 70 67 82
-0.672340 -0.421700 -1.089232 113 120 123
-0.680102 -0.484205 -1.059015 66 41 39
-0.680102 -0.484205 -1.059015 66 41 39
-0.675512 -0.408789 -1.063493 60 47 55
-0.667329 -0.697940 -1.009207 130 95 109
-0.661968 -0.617228 -1.018206 146 104 127
-0.670199 -0.556496 -1.019446 64 69 78
-0.665059 -0.503756 -1.025822 65 40 36
-0.671178 -0.569911 -1.011552 115 121 120
-0.692139 -1.101050 -0.919272 84 76 83
-0.654758 -0.522792 -1.012288 190 154 138
-0.690967 -1.123237 -0.910881 75 72 81
-0.671838 -0.451531 -0.994732 117 120 125
-0.655860 -0.657528 -0.958572 46 26 21
-0.659018 -0.579427 -0.967103 117 93 93
-0.667602 -0.433600 -0.983766 74 67 74
-0.671870 -0.445860 -0.978927 161 142 134
-0.672089 -0.496602 -0.968130 144 114 103
-0.672181 -0.454565 -0.971455 104 81 79
-0.672905 -0.426425 -0.973728 107 114 123
-0.670338 -0.437482 -0.967505 74 67 70
-0.664408 -0.617857 -0.937114 73 44 39
-0.247275 0.389032 -1.211309 35 41 46
-0.678572 -0.550399 -0.935666 119 79 67
-0.673619 -0.531108 -0.930090 162 129 114
-0.669736 -0.426087 -0.921539 52 49 64
-0.669736 -0.426087 -0.921539 52 49 64
-0.674242 -0.230538 -0.944563 75 62 64
-0.661491 -0.649677 -0.877046 150 113 121
-0.666902 -0.407377 -0.902621 104 122 133
-0.662794 -0.584733 -0.874248 45 34 36
-0.662794 -0.584733 -0.874248 45 34 36
-0.665803 -0.511611 -0.883111 57 59 69
-0.633108 -0.379323 -0.912299 53 40 42
-0.708299 -0.152817 -0.923958 77 34 31
-0.710378 -0.167398 -0.916669 161 126 112
-0.707435 -0.185908 -0.907522 181 147 131
-0.708357 -0.172328 -0.907585 98 56 43
-0.651547 -0.607313 -0.849927 61 56 65
-0.653177 -0.606569 -0.841552 98 101 105
-0.661606 -0.446752 -0.861607 170 139 130
-0.657927 -0.611683 -0.831924 41 32 35
-0.705710 -0.217659 -0.875470 109 67 60
-0.695050 -0.111191 -0.881048 132 86 78
-0.705978 -1.493798 -0.652438 56 22 9
-0.705732 0.021524 -0.874967 194 156 138
-0.661381 -0.561248 -0.797370 162 136 129
-0.682194 -1.219189 -0.677089 109 72 58
-0.682194 -1.219189 -0.677089 109 72 58
-0.632782 -1.462043 -0.651070 58 28 17
-0.655235 -0.567360 -0.779152 93 63 68
-0.661123 -0.434144 -0.794423 105 116 120
-0.630943 -1.459001 -0.636567 50 23 9
-0.510230 0.249794 -0.945725 200 153 131
-0.696481 0.045480 -0.849201 201 158 137
-0.630073 -1.456157 -0.621821 61 30 15
-0.650287 -0.680208 -0.732225 104 68 84
-0.650287 -0.680208 -0.732225 104 68 84
-0.707790 -0.212798 -0.784982 42 23 20
-0.629992 -1.454689 -0.608565 52 20 7
-0.662325 -0.408496 -0.760616 81 67 69
-0.659509 -0.593904 -0.726905 42 36 41
-0.648678 -0.343668 -0.765361 56 42 43
-0.705203 -0.185442 -0.770958 195 152 133
-0.633906 -0.635493 -0.716374 57 38 41
-0.660238 -0.559479 -0.719067 130 133 137
-0.650948 -0.328521 -0.747344 111 85 78
-0.650948 -0.328521 -0.747344 111 85 78
-0.659521 -0.531326 -0.709875 118 127 131
-0.661019 -0.520802 -0.710760 104 111 114
-0.698569 0.084881 -0.786165 210 161 139
-0.698569 0.084881 -0.786165 210 161 139
-0.618675 -0.668029 -0.684291 107 70 90
-0.618675 -0.668029 -0.684291 107 70 90
-0.653099 -0.443740 -0.689217 104 115 119
-0.698791 -0.170777 -0.714777 187 143 126
-0.658618 -0.574512 -0.662374 43 32 35
-0.696483 -0.041041 -0.733722 55 33 27
-0.694976 0.064641 -0.750669 52 33 26
-0.678676 -1.207714 -0.546632 123 80 65
-0.697036 -0.220344 -0.699698 58 23 19
-0.662769 -1.211272 -0.549474 147 109 91
-0.652093 -0.497214 -0.668304 106 106 106
-0.694960 0.096662 -0.747127 175 139 123
-0.630802 -0.607079 -0.653675 93 97 102
-0.697003 0.034062 -0.732352 51 16 13
-0.697003 0.034062 -0.732352 51 16 13
-0.650415 -0.428396 -0.668743 62 57 59
-0.650719 -0.489430 -0.657617 70 45 41
-0.650719 -0.489430 -0.657617 70 45 41
-0.645672 -0.558316 -0.647516 117 113 112
-0.721839 0.133783 -0.725136 46 40 63
-0.647967 -0.583720 -0.624658 54 52 64
-0.638609 -0.634721 -0.611009 84 58 76
-0.644498 -0.461801 -0.633821 74 51 43
-0.645204 -0.445968 -0.626402 62 41 43
-0.692307 -0.125930 -0.659547 179 143 125
-0.692295 -0.126062 -0.659526 179 143 125
-0.693386 -0.128554 -0.646915 102 57 44
-0.654083 -0.358349 -0.618383 103 115 119
-0.691529 0.069939 -0.673918 192 148 131
-0.693401 0.106154 -0.677283 194 148 131
-0.652306 -0.384151 -0.604422 118 130 134
-0.632607 -0.529152 -0.583208 97 109 113
-0.689756 -0.108081 -0.629410 177 141 131
-0.653172 -0.388769 -0.591233 99 103 108
-0.630908 -0.554768 -0.567150 113 118 121
-0.636351 -0.408793 -0.575592 125 128 133
-0.637322 -0.383179 -0.578866 48 50 60
-0.652114 -0.598978 -0.532248 147 108 116
-0.648225 -0.464693 -0.555140 119 114 116
-0.649845 -0.175660 -0.596337 66 55 63
-0.637699 -0.518055 -0.502701 174 137 123
-0.642705 -0.344283 -0.519096 99 118 121
-0.631056 -0.532934 -0.490318 122 84 72
-0.623117 -0.550137 -0.488200 189 152 132
-0.619577 -0.189827 -0.536597 94 101 110
-0.640137 -0.339301 -0.490481 85 99 105
-0.666224 -1.028228 -0.343403 81 69 75
-0.630597 -0.577212 -0.428220 122 94 107
-0.623217 -0.204755 -0.481321 51 54 62
-0.653074 -0.349430 -0.440446 115 119 114
-0.653074 -0.349430 -0.440446 115 119 114
-0.651210 -0.371962 -0.435453 151 119 108
-0.657671 -0.326480 -0.439727 142 113 99
-0.647078 -0.384483 -0.422119 137 105 92
-0.641742 -0.469947 -0.399826 134 99 119
-0.632010 -0.192940 -0.439570 44 48 53
-0.643016 -0.191832 -0.347908 96 101 104
-0.662167 -0.929471 -0.208444 96 88 98
-0.644747 -0.218904 -0.327986 63 45 46
-0.639072 -0.162547 -0.335462 83 59 53
-0.193212 0.478258 -0.561579 85 103 110
-0.620477 0.356616 -0.291360 112 71 62
-0.666667 -0.010057 -0.167234 71 46 36
-0.666667 -0.010057 -0.167234 71 46 36
-0.630046 -0.255263 -0.134673 167 133 120
-0.675427 -0.162312 -0.114181 159 116 97
-0.636725 -0.393013 -0.083138 122 78 71
-0.662744 -0.041270 -0.134240 196 153 132
-0.677395 -1.055553 0.057783 92 65 68
-0.683610 -1.001187 0.052989 143 93 73
-0.678935 -0.180849 -0.097740 39 21 20
-0.635460 -0.322410 -0.087557 179 142 128
-0.638299 -0.345783 -0.059292 171 134 120
-0.635882 -0.360670 -0.054625 84 57 67
-0.628210 -0.254639 -0.067888 133 91 79
-0.628210 -0.254639 -0.067888 133 91 79
-0.635997 -0.392671 -0.035542 122 81 66
-0.672900 -0.989410 0.108547 144 95 73
-0.651922 -0.166391 -0.034645 52 18 18
-0.662712 -0.098927 -0.040858 141 96 75
-0.615318 0.447866 -0.147291 101 68 65
-0.643916 -1.092841 0.170941 97 59 47
-0.646803 -0.021013 -0.012683 193 148 134
-0.632754 -0.372279 0.046906 109 68 59
-0.628491 -0.297901 0.041573 127 103 103
-0.673527 -1.007657 0.203402 170 128 115
-0.626071 -0.284581 0.049067 109 78 79
-0.630128 -1.095792 0.206145 141 101 89
-0.638552 -0.044977 0.016609 148 102 78
-0.517356 -1.262892 0.209425 141 105 81
-0.641238 -0.521946 0.154317 111 89 101
-0.630846 -0.523805 0.170652 87 56 63
-0.518940 -1.251777 0.287658 113 83 66
-0.595951 0.654986 -0.015511 92 62 51
-0.627804 -0.982145 0.339458 76 70 81
-0.635423 -1.093157 0.369601 145 107 95
-0.633951 -1.083226 0.441804 136 101 88
-0.625995 -0.887537 0.420056 69 67 79
-0.601908 0.518601 0.134932 99 78 86
-0.601908 0.518601 0.134932 99 78 86
-0.618477 -0.821602 0.539590 57 53 72
-0.618477 -0.821602 0.539590 57 53 72
-0.618920 -0.852885 0.556481 53 47 64
-0.640252 0.407463 0.335962 129 93 85
-0.621234 -0.927992 0.614562 100 103 111
-0.614653 -0.802903 0.598448 57 57 71
-0.614653 -0.802903 0.598448 57 57 71
-0.583792 0.491776 0.334359 133 128 129
-0.615589 -0.861472 0.648572 97 65 59
-0.590519 0.562532 0.349104 168 126 113
-0.580426 0.779301 0.304240 104 72 66
-0.580246 0.526542 0.359781 103 112 116
-0.580246 0.526542 0.359781 103 112 116
-0.577894 0.526592 0.358961 103 112 116
-0.575316 0.732638 0.326686 164 128 112
-0.576439 0.546912 0.365208 134 129 128
-0.579518 0.648255 0.347974 94 51 42
-0.579518 0.648255 0.347974 94 51 42
-0.498514 -1.185680 0.692010 106 82 60
-0.589893 0.507739 0.404013 136 122 123
-0.580987 0.494877 0.410599 114 78 62
-0.590931 -0.191476 0.588172 150 105 91
-0.574396 0.807112 0.386652 165 130 110
-0.590191 0.023508 0.568577 140 97 82
-0.577766 0.726417 0.449443 99 69 58
-0.577766 0.726417 0.449443 99 69 58
-0.598102 -0.351195 0.694575 144 99 85
-0.581220 -0.123552 0.641888 94 70 80
-0.607711 -1.038472 0.852228 37 29 30
-0.569089 0.756876 0.464429 176 130 112
-0.587998 -0.090945 0.667037 63 45 58
-0.631332 -0.794201 0.871677 141 92 70
-0.585885 -0.194584 0.742905 164 128 112
-0.580518 -0.244352 0.757735 169 133 115
-0.585731 -0.184226 0.753094 134 89 78
-0.591210 -0.268096 0.797049 112 66 59
-0.605279 0.374131 0.675023 68 40 29
-0.582334 -0.142761 0.792495 186 141 120
-0.585827 -0.210333 0.814463 175 135 116
-0.566545 0.792746 0.592097 139 96 81
-0.573385 0.692919 0.631398 164 124 106
-0.580866 -0.122585 0.811141 118 78 66
-0.561893 0.761558 0.613966 112 66 58
-0.618757 -0.439417 0.909464 185 136 122
-0.584094 -0.224586 0.845256 78 52 58
-0.610637 0.101206 0.794447 184 141 120
-0.561824 0.703634 0.649370 121 76 65
-0.561824 0.703634 0.649370 121 76 65
-0.561777 0.781838 0.638969 178 135 116
-0.578434 -0.247042 0.892418 158 125 106
-0.558983 0.768899 0.665590 107 65 58
-0.559352 0.727934 0.693463 174 131 114
-0.589996 1.010439 0.655258 70 41 32
-0.585937 -0.100081 0.894333 150 121 114
-0.577185 -0.134165 0.906429 175 132 115
-0.571494 -0.114079 0.910923 180 140 122
-0.557290 0.530958 0.769680 113 74 65
-0.581911 -0.318682 0.976762 186 143 124
-0.574685 -0.077778 0.929468 93 68 78
-0.580791 -0.390574 1.002336 79 55 65
-0.579467 -0.354952 0.999410 181 137 120
-0.574241 -0.336988 0.993102 139 97 84
-0.553720 0.802444 0.757081 163 120 103
-0.549245 0.849650 0.775250 69 51 64
-0.544707 0.787832 0.807516 93 61 50
-0.578990 -0.861834 1.200642 62 58 70
-0.583457 -0.958572 1.238008 139 102 88
-0.576963 -0.723748 1.200912 67 57 73
-0.538798 1.254137 0.736936 155 120 106
-0.532013 1.024367 0.786916 101 63 58
-0.532013 1.024367 0.786916 101 63 58
-0.538850 0.945414 0.811119 103 64 56
-0.538850 0.945414 0.811119 103 64 56
-0.537428 1.104529 0.775491 98 60 55
-0.537428 1.104529 0.775491 98 60 55
-0.580674 -0.800854 1.235930 53 48 63
-0.529441 1.344013 0.736644 95 59 53
-0.545527 1.030204 0.835501 99 63 57
-0.573278 -0.711472 1.270127 54 50 62
-0.568028 -0.450896 1.221700 99 70 73
-0.575356 -0.842966 1.317598 50 46 57
-0.530511 1.457513 0.768249 94 58 52
-0.517580 1.195080 0.829772 94 57 53
-0.526469 1.450609 0.785722 148 112 96
-0.576620 -0.751969 1.340019 110 111 115
-0.545794 1.058674 0.919398 159 123 107
-0.543356 0.963819 0.941863 101 67 61
-0.574087 -0.755264 1.366076 93 65 58
-0.574087 -0.755264 1.366076 93 65 58
-0.532984 0.902339 0.967611 161 124 104
-0.531081 1.283347 0.885330 91 59 53
-0.569759 -0.829982 1.412947 131 96 83
-0.527993 1.392616 0.874977 94 61 52
-0.524849 1.223817 0.912974 152 116 98
-0.564085 -0.546612 1.357944 159 120 105
-0.522506 1.384085 0.891453 149 113 97
-0.549089 0.821981 1.059285 109 78 69
-0.563428 -0.835645 1.460081 47 26 24
-0.563428 -0.835645 1.460081 47 26 24
-0.551815 -0.887227 1.466517 35 18 15
-0.538275 0.898388 1.046440 95 64 55
-0.536103 1.060391 1.022641 98 66 61
-0.533281 1.474451 0.948015 148 112 96
-0.521765 1.378518 0.968833 89 60 55
-0.519486 1.158700 1.019909 154 116 98
-0.521393 1.066337 1.044055 98 62 56
-0.518666 1.317446 0.997081 151 116 96
-0.508867 1.384539 0.990979 90 55 51
-0.533743 0.674613 1.182052 138 103 89
-0.531585 0.798020 1.164262 157 118 103
-0.249153 1.685240 0.756817 158 135 113
-0.525176 1.088155 1.101803 149 116 96
-0.237183 1.692257 0.762080 65 39 39
-0.529843 1.315185 1.076934 84 55 48
-0.521712 1.145966 1.117669 123 91 78
-0.518361 0.916094 1.172398 46 29 26
-0.518361 0.916094 1.172398 46 29 26
-0.517647 1.254723 1.099477 130 95 81
-0.519333 1.330258 1.082935 141 108 92
-0.515789 0.998338 1.160506 41 29 23
-0.515789 0.998338 1.160506 41 29 23
-0.514990 1.043027 1.152301 46 29 20
-0.514990 1.043027 1.152301 46 29 20
-0.556311 -0.661530 1.593636 54 48 65
-0.510602 1.491591 1.052285 139 103 85
-0.510070 1.205236 1.124591 43 26 23
-0.510070 1.205236 1.124591 43 26 23
-0.510653 1.229254 1.121376 45 26 21
-0.510653 1.229254 1.121376 45 26 21
-0.509417 0.940775 1.195391 140 105 85
-0.508405 1.282002 1.114561 43 27 20
-0.508405 1.282002 1.114561 43 27 20
-0.555644 -0.793357 1.643187 51 45 56
-0.506730 1.022746 1.184212 138 102 84
-0.502574 0.797453 1.239589 171 128 109
-0.496598 1.258949 1.136911 132 99 79
-0.548608 -0.649966 1.640482 53 53 69
-0.521148 1.090522 1.210128 96 64 58
-0.511696 1.189363 1.209614 150 115 95
-0.504788 1.346561 1.180251 147 113 90
-0.495558 1.508355 1.152069 139 106 86
-0.506593 0.961583 1.338829 157 120 100
-0.511651 1.343481 1.260082 90 58 52
-0.509424 1.436324 1.235889 146 113 93
-0.491100 1.347721 1.279550 89 54 50
-0.495032 1.509888 1.259805 81 52 48
-0.517140 0.895558 1.439764 80 54 47
-0.517140 0.895558 1.439764 80 54 47
-0.517140 0.895558 1.439764 80 54 47
-0.512736 0.958650 1.422032 95 64 55
-0.504839 0.915865 1.443808 146 114 95
-0.496814 1.058134 1.421151 154 119 99
-0.504174 1.533122 1.317165 144 111 92
-0.494752 1.218994 1.394026 150 116 93
-0.527097 0.044561 1.712240 87 62 72
-0.487325 1.375618 1.364261 145 112 92
-0.488728 1.537466 1.340561 147 112 92
-0.514537 1.054686 1.495880 97 62 52
-0.508372 0.908593 1.530538 85 57 46
-0.516442 1.136885 1.492145 96 62 56
-0.516442 1.136885 1.492145 96 62 56
-0.531222 -0.012556 1.796974 108 80 86
-0.529579 0.036369 1.787049 165 125 107
-0.529579 0.036369 1.787049 165 125 107
-0.508797 1.217362 1.478489 92 59 50
-0.507737 1.296881 1.466167 90 57 48
-0.148578 1.737204 1.073211 145 114 89
-0.500345 1.455618 1.437083 84 55 46
-0.560454 0.230952 1.797414 63 38 28
-0.492343 1.535404 1.420323 81 52 48
-0.178910 1.709626 1.123185 141 103 85
-0.178910 1.709626 1.123185 141 103 85
-0.165750 1.747554 1.114921 53 33 38
-0.519798 0.045387 1.830543 113 70 61
-0.527853 -0.076344 1.879197 171 128 109
-0.549909 0.516846 1.748610 30 16 10
-0.476619 1.517451 1.449162 40 28 40
-0.476619 1.517451 1.449162 40 28 40
-0.524842 -0.037328 1.882140 164 126 108
-0.524842 -0.037328 1.882140 164 126 108
-0.550368 0.554912 1.753867 100 52 34
-0.550368 0.554912 1.753867 100 52 34
-0.502769 0.975929 1.648026 162 125 111
-0.523980 0.008702 1.919519 170 129 114
-0.498696 0.886084 1.678019 111 69 57
-0.551358 0.549592 1.812624 125 90 76
-0.545553 0.527538 1.815084 40 24 18
-0.517452 1.467203 1.557473 120 95 79
-0.497136 0.933903 1.676862 102 56 48
-0.497062 0.976435 1.676423 99 63 55
-0.541343 0.560978 1.838735 143 107 89
-0.497408 0.953809 1.703845 162 119 100
-0.553341 0.199112 1.954484 166 129 107
-0.532431 0.572556 1.843566 95 53 54
-0.542125 -0.737407 2.189179 122 84 72
-0.539616 0.117587 1.968886 47 35 41
-0.522389 0.010336 1.982434 166 122 105
-0.496196 0.884265 1.743009 112 70 57
-0.518879 0.070750 1.983468 101 73 73
-0.523333 -0.222460 2.067177 65 41 49
-0.531543 -0.703846 2.198065 54 46 57
-0.518241 0.034989 2.003234 91 58 49
-0.515439 -0.167121 2.060644 130 83 75
-0.494204 0.909339 1.767505 103 57 49
-0.525711 -0.563594 2.196209 63 48 62
-0.663555 -1.103893 2.453971 28 16 12
-0.475427 1.670096 1.585873 45 33 27
-0.480590 0.908184 1.807423 97 58 56
-0.516751 1.274172 1.746796 63 41 30
-0.510743 1.495972 1.708784 66 44 32
-0.507663 0.261278 2.033475 120 75 64
-0.451811 -0.869749 2.322430 34 30 42
-0.474120 0.947772 1.882078 116 90 76
-0.438304 -0.513835 2.277637 76 68 75
-0.474035 1.274484 1.840317 89 55 49
-0.472149 1.121408 1.892025 86 54 43
-0.469448 1.431245 1.813872 87 53 47
-0.464671 1.592914 1.787470 76 48 41
-0.390222 -1.876700 2.645767 159 109 67
-0.484289 1.049747 1.976075 74 48 42
-0.489211 1.142940 1.957759 141 108 92
-0.369505 -0.544435 2.344765 63 58 67
-0.369505 -0.544435 2.344765 63 58 67
-0.452024 1.371244 1.937020 72 43 38
-0.280948 -1.063404 2.445621 108 80 86
-0.470667 1.304316 2.026373 70 46 40
-0.450110 1.148664 2.072478 76 47 43
-0.291593 -0.542001 2.413835 163 126 112
-0.274084 -0.904006 2.496633 168 124 101
-0.287461 -0.450445 2.397277 175 137 119
-0.274735 -0.210479 2.323176 88 70 77
-0.262352 -0.973381 2.524533 86 45 30
-0.371694 1.064275 2.081954 77 49 42
-0.281395 0.322085 2.213799 129 106 104
-0.370675 1.224978 2.055566 71 45 39
-0.223005 -0.607485 2.456939 64 44 49
-0.221261 -1.008742 2.569881 176 133 118
-0.221654 -0.897514 2.551672 169 131 119
-0.269884 0.280133 2.275605 146 111 97
-0.210577 -1.033573 2.587414 79 40 31
-0.265361 0.307060 2.270661 158 125 110
-0.301199 1.302547 2.028932 83 54 47
-0.248725 -0.046177 2.355353 171 133 109
-0.265869 0.356190 2.263606 160 123 109
-0.274217 1.140747 2.065901 79 53 46
-0.251527 0.331071 2.277568 42 16 16
-0.268250 1.233837 2.046995 136 107 86
-0.227783 0.263479 2.285065 72 43 34
-0.241730 0.254389 2.303893 119 85 72
-0.248024 0.432467 2.260777 37 16 14
-0.241390 0.403681 2.283019 142 109 90
-0.222871 0.322704 2.306158 41 20 12
-0.238735 0.711893 2.213344 38 22 23
-0.247607 1.538586 1.991258 73 47 40
-0.220999 0.423748 2.290500 31 17 11
-0.192085 -0.110995 2.418165 164 130 114
-0.239523 1.167751 2.124277 128 95 86
-0.142222 -0.629441 2.542387 60 43 47
-0.237557 1.202143 2.120022 135 103 84
-0.236175 1.245896 2.112846 145 110 96
-0.209135 0.800062 2.226677 49 28 20
-0.220874 1.222634 2.125276 39 20 15
-0.210960 1.198308 2.126305 119 92 78
-0.210960 1.198308 2.126305 119 92 78
-0.177319 0.331936 2.341993 156 123 103
-0.135243 -0.165767 2.475060 158 123 103
-0.103213 -0.253098 2.475382 82 64 71
-0.193406 1.213645 2.155115 34 18 11
-0.125929 -1.748938 2.938829 52 30 18
-0.150621 0.400563 2.357829 130 98 79
-0.194349 1.318584 2.140537 37 21 15
-0.164739 0.760545 2.271119 153 117 101
-0.174313 1.188188 2.163818 135 102 82
-0.109055 0.195514 2.389676 80 65 69
-0.182271 1.232389 2.168111 133 100 80
-0.085313 -0.746288 2.681634 164 121 104
-0.085313 -0.746288 2.681634 164 121 104
-0.149990 1.176146 2.200158 136 100 82
-0.126869 0.678336 2.324855 51 28 20
-0.150286 1.254171 2.186705 130 99 84
-0.095747 0.626047 2.320804 59 48 58
-0.069965 -0.502429 2.641339 74 56 69
-0.069965 -0.502429 2.641339 74 56 69
-0.084817 1.016066 2.240568 78 54 42
-0.027396 -0.836789 2.721871 26 17 14
-0.166869 1.858974 2.086870 59 22 8
-0.111617 1.189195 2.239844 35 16 11
-0.154249 1.877008 2.089144 179 113 88
-0.113362 1.238538 2.234255 40 21 13
-0.146169 1.894420 2.079759 30 15 12
-0.115898 1.293069 2.228449 38 21 18
-0.086169 1.163536 2.240753 135 102 82
-0.072611 -0.623501 2.760992 36 32 43
-0.067976 1.397139 2.173051 83 55 48
-0.065036 1.508080 2.156111 82 50 44
-0.090522 1.864385 2.114184 18 11 8
-0.019852 1.088158 2.278713 80 50 45
-0.020514 1.167558 2.268348 77 48 44
-0.005270 1.515932 2.155208 122 87 74
-0.014835 1.247271 2.250361 74 46 45
-0.022397 0.826010 2.408882 67 63 69
-0.032557 1.872301 2.130783 90 76 80
-0.000534 1.565839 2.193146 63 40 44
-0.009974 1.254364 2.299953 66 39 35
0.078086 -0.512269 2.805042 73 56 69
-0.839473 0.660272 -3.688806 170 131 116
-0.838632 0.178262 -3.633476 46 32 36
-0.849145 0.339640 -3.646469 154 114 96
-0.849145 0.339640 -3.646469 154 114 96
-0.853558 -1.548942 -3.498381 40 42 50
-0.812140 0.030043 -3.585446 99 62 58
-0.844397 -1.594690 -3.445109 58 53 68
-0.842524 -1.096052 -3.469229 72 43 36
-0.843161 -1.491547 -3.429674 122 80 68
-0.834084 -0.823397 -3.458548 167 125 112
-0.855784 -0.406581 -3.483381 74 41 32
-0.844400 0.604057 -3.559031 78 30 12
-0.863766 -0.649684 -3.446656 78 44 38
-0.863766 -0.649684 -3.446656 78 44 38
-0.859656 -0.649140 -3.444485 78 44 38
-0.832304 -0.823879 -3.414454 158 125 110
-0.833286 -0.933651 -3.388271 161 125 109
-0.841516 0.519360 -3.488571 65 38 18
-0.852889 -0.549810 -3.375784 139 96 77
-0.852889 -0.549810 -3.375784 139 96 77
-0.858145 -0.241361 -3.373434 184 138 121
-0.825188 -0.879524 -3.302766 80 57 65
-0.839599 -1.631073 -3.239604 89 54 41
-0.842622 -0.771047 -3.312103 175 135 123
-0.821039 -0.820360 -3.294242 123 79 62
