ply
format ascii 1.0
element vertex 1211
property float x
property float y
property float z
property uchar blue
property uchar green
property uchar red
end_header
0.118193 -0.063014 0.002324 111 110 177
0.118193 -0.063014 0.002324 111 110 177
0.107368 -0.028374 0.024751 121 124 187
0.065589 0.208682 0.185820 61 107 188
0.119713 0.044128 0.081601 59 56 131
0.154770 -0.169153 -0.062300 143 184 247
0.069505 0.209164 0.190497 168 194 248
0.116795 -0.073364 0.002273 149 153 223
0.116374 0.034016 0.080275 73 69 138
0.073512 0.215764 0.203118 155 167 197
0.108954 0.032227 0.082316 98 113 167
0.058694 0.200627 0.192253 104 145 202
0.143543 -0.196666 -0.070435 138 154 231
0.118960 -0.090205 0.002324 151 153 223
0.128873 -0.106426 -0.005441 122 121 191
0.128873 -0.106426 -0.005441 122 121 191
0.141199 -0.134917 -0.016150 151 160 226
0.095864 0.002692 0.073726 94 99 163
0.111402 -0.086896 0.013604 79 71 144
0.115496 -0.110580 0.000506 119 117 162
0.090064 0.012673 0.083261 112 111 168
0.042215 0.058847 0.106359 65 56 86
0.104520 -0.056554 0.039472 157 162 235
0.104520 -0.056554 0.039472 157 162 235
0.111978 -0.089339 0.018057 139 141 213
0.111978 -0.089339 0.018057 139 141 213
0.141316 -0.143381 -0.012577 213 215 255
0.086670 0.013358 0.087296 52 37 96
0.112305 -0.105463 0.009224 45 33 113
0.100802 -0.066037 0.035039 73 69 152
0.087819 0.001874 0.087138 64 50 113
0.092661 -0.017300 0.078246 68 51 122
0.125465 -0.138276 0.000141 237 241 255
0.125465 -0.138276 0.000141 237 241 255
0.138326 -0.199143 -0.038929 71 64 134
0.138326 -0.199143 -0.038929 71 64 134
0.138326 -0.199143 -0.038929 71 64 134
0.095480 -0.049096 0.060359 137 142 214
0.123386 -0.140408 0.003409 134 139 156
0.123386 -0.140408 0.003409 134 139 156
0.103893 -0.114703 0.018680 118 118 168
0.132275 -0.197821 -0.031704 75 76 143
0.221753 -0.356355 -0.121669 158 220 255
0.225911 -0.322762 -0.095077 25 26 54
0.084047 -0.083111 0.042191 83 73 160
0.086166 -0.043334 0.072030 88 70 148
0.083172 -0.029568 0.081392 77 63 129
0.089824 -0.052795 0.071773 75 58 141
0.087402 -0.117582 0.028252 133 137 184
0.080895 -0.089393 0.047353 64 63 142
0.112293 -0.158502 0.007131 236 237 251
0.088357 -0.134672 0.022057 45 30 64
0.219315 -0.315760 -0.071601 62 53 60
0.096558 -0.153619 0.013918 144 137 156
0.070556 -0.053732 0.080251 78 70 143
0.062965 -0.067681 0.071492 128 134 200
0.073682 -0.124258 0.034587 175 183 227
0.017518 0.017180 0.122894 34 31 41
0.069338 -0.131260 0.031102 179 183 218
0.224192 -0.313652 -0.058432 239 255 255
0.093205 -0.186685 0.002245 230 230 253
0.086667 -0.179042 0.009701 237 236 255
0.046393 -0.130337 0.036915 134 137 183
0.042347 -0.138416 0.031152 98 83 115
0.078245 -0.195686 0.006068 222 229 255
0.026524 0.001916 0.134849 65 58 122
0.058668 -0.156549 0.030465 97 84 112
0.022564 -0.036271 0.108576 112 113 166
0.024391 -0.045657 0.104370 95 102 156
0.026918 -0.004393 0.135368 112 114 179
0.066673 -0.181769 0.018902 197 193 223
0.219862 -0.313367 -0.025525 65 77 154
0.050870 -0.193059 0.014297 25 25 29
0.055002 -0.203353 0.008818 27 28 43
0.051181 -0.209965 0.013955 21 91 134
0.020174 0.028695 0.180679 57 63 140
0.012466 0.026794 0.183482 121 132 204
0.007931 -0.038432 0.135773 41 37 113
0.004226 -0.044718 0.132685 113 118 177
0.001435 0.010918 0.178595 114 129 193
0.005228 0.010737 0.185025 85 88 168
-0.011660 -0.014827 0.165291 58 50 117
-0.011667 -0.001730 0.179203 103 103 164
-0.022219 -0.014523 0.168534 136 144 200
0.085863 -0.224031 0.113613 106 146 177
0.085863 -0.224031 0.113613 106 146 177
0.080756 -0.226200 0.120472 134 170 205
0.080756 -0.226200 0.120472 134 170 205
0.132442 -0.260335 0.115004 40 70 96
0.083947 -0.222213 0.133441 54 90 134
0.088349 -0.231309 0.128693 119 176 219
0.092234 -0.233898 0.154835 229 250 255
0.092234 -0.233898 0.154835 229 250 255
0.104266 -0.238026 0.166086 253 255 255
0.104266 -0.238026 0.166086 253 255 255
0.092327 -0.262147 0.145698 154 74 67
0.175347 -0.124710 -0.057273 24 94 151
0.175347 -0.124710 -0.057273 24 94 151
0.160984 -0.145761 -0.078418 49 94 174
0.170570 -0.163121 -0.073977 124 147 222
0.148080 -0.168207 -0.085147 121 182 240
0.148080 -0.168207 -0.085147 121 182 240
0.169325 -0.165906 -0.065133 157 180 246
0.171877 -0.150085 -0.050785 27 35 76
0.150786 -0.119269 -0.035552 106 111 179
0.171316 -0.160973 -0.057586 151 162 236
0.173331 -0.157592 -0.050386 119 129 207
0.137195 0.026413 0.076696 125 137 200
0.137195 0.026413 0.076696 125 137 200
0.122866 0.005827 0.060755 66 59 133
0.175767 -0.171042 -0.052905 146 170 238
0.175767 -0.171042 -0.052905 146 170 238
0.140229 -0.191650 -0.084853 131 170 239
0.140674 -0.107317 -0.010010 112 112 180
0.157043 -0.139909 -0.024515 148 156 223
0.137381 -0.111426 -0.005234 122 125 189
0.160998 -0.229743 -0.084904 142 155 227
0.106343 -0.020426 0.056783 39 32 99
0.155146 -0.142093 -0.015351 156 159 228
0.161090 -0.157594 -0.024249 191 201 246
0.161090 -0.157594 -0.024249 191 201 246
0.107553 -0.042474 0.041246 149 150 223
0.116873 -0.095630 0.006973 169 184 243
0.155893 -0.216812 -0.069244 132 145 222
0.155893 -0.216812 -0.069244 132 145 222
0.142321 -0.128074 -0.003618 154 159 214
0.151596 -0.179803 -0.038198 105 105 169
0.102468 -0.019299 0.066776 135 139 208
0.117175 -0.102062 0.009289 204 207 255
0.104675 -0.068434 0.029963 155 159 232
0.143809 -0.142287 -0.005956 207 203 230
0.112182 -0.058046 0.045011 69 63 153
0.100002 -0.084150 0.026376 42 37 106
0.112251 -0.111753 0.014678 187 193 243
0.092454 -0.032466 0.072360 57 48 126
0.092110 -0.073065 0.042647 147 154 226
0.133536 -0.183218 -0.019654 255 255 255
0.081140 -0.087130 0.032770 70 67 136
0.107785 -0.134586 0.011009 131 120 154
0.086358 -0.100998 0.033796 147 142 204
0.081729 -0.049072 0.076846 108 112 188
0.081729 -0.049072 0.076846 108 112 188
0.080348 -0.081741 0.055000 72 70 147
0.084568 -0.137505 0.020513 231 226 251
0.064771 -0.115599 0.031984 45 42 118
0.058410 -0.101807 0.040460 53 39 115
0.099312 -0.180100 -0.000681 255 255 255
0.086261 -0.147616 0.018482 208 203 233
0.073143 -0.153082 0.012807 166 170 198
0.044016 -0.066275 0.067263 119 129 193
0.046186 -0.050495 0.081030 137 142 211
0.079202 -0.153644 0.018095 227 228 249
0.079366 -0.168540 0.012967 253 253 255
0.066861 -0.207749 -0.016047 169 182 238
0.070387 -0.181530 0.011527 153 150 182
0.053870 -0.169639 0.019792 219 216 242
0.052034 -0.211174 -0.011073 158 176 237
-0.002542 0.017367 0.150271 107 105 179
-0.002542 0.017367 0.150271 107 105 179
-0.009982 0.064470 0.184839 61 54 120
0.030154 -0.190101 0.006922 25 27 42
0.026887 -0.187395 0.011947 111 168 200
0.026887 -0.187395 0.011947 111 168 200
0.016013 -0.208343 -0.006546 95 169 202
0.004077 0.140036 0.261096 120 123 180
-0.018636 0.061907 0.194087 71 66 133
0.024453 -0.206080 0.007576 26 107 153
0.005928 0.138631 0.266104 75 26 33
-0.026518 -0.033204 0.117571 83 78 150
-0.014003 -0.017765 0.136070 156 157 227
-0.013807 -0.009991 0.143292 75 70 147
-0.031112 0.042874 0.176499 112 118 195
-0.039231 -0.034483 0.113652 82 81 154
0.027313 -0.210218 0.012887 129 204 238
-0.017263 -0.009261 0.147059 145 154 227
-0.013345 0.045283 0.192878 80 74 146
-0.018625 0.012691 0.168544 158 160 231
-0.019560 -0.018038 0.147828 82 72 149
-0.025299 0.100245 0.236518 138 157 228
0.019669 -0.176337 0.045172 171 211 250
0.019669 -0.176337 0.045172 171 211 250
0.020056 -0.192999 0.032634 37 123 165
-0.026109 0.024918 0.185735 155 160 231
-0.048403 0.021267 0.178085 57 53 137
0.154736 -0.184980 -0.096108 156 210 249
0.135791 -0.057275 -0.000012 57 50 101
0.127574 -0.028766 0.028040 19 25 40
0.144635 -0.207127 -0.097928 125 166 233
0.107251 -0.061565 0.034495 54 50 147
0.099323 -0.012612 0.073073 69 59 135
0.102150 -0.075258 0.032267 178 181 248
0.111891 -0.162686 -0.024848 255 255 255
0.101327 -0.125140 0.006747 94 82 116
0.018377 -0.182537 0.089638 27 74 134
0.015135 -0.184660 0.093861 189 255 255
0.013892 -0.194058 0.087126 227 241 251
0.157811 0.022893 0.002911 247 255 255
0.158524 0.006857 -0.002224 117 153 229
0.143855 -0.129164 -0.040739 127 134 211
0.146763 -0.192316 -0.071373 157 192 251
0.127345 -0.107030 -0.015359 119 125 185
0.117067 -0.106609 -0.000845 108 105 160
0.108401 -0.079034 0.020390 166 171 238
0.101682 -0.052924 0.041381 78 77 164
0.108392 -0.103807 0.004837 69 58 131
0.099685 -0.086680 0.023828 60 52 130
0.086884 -0.082946 0.037971 112 113 191
0.086605 -0.080266 0.041042 179 185 250
0.081199 -0.047868 0.063768 141 149 219
0.084474 -0.086914 0.040127 81 87 171
0.174230 -0.057169 -0.035109 134 170 227
0.174230 -0.057169 -0.035109 134 170 227
0.126390 0.114398 0.103089 122 146 220
0.122486 0.117747 0.115240 69 63 144
0.108900 0.133715 0.135025 36 34 92
0.156323 -0.134582 -0.059579 121 165 234
0.117836 0.088605 0.109673 63 59 130
0.117836 0.088605 0.109673 63 59 130
0.149406 -0.154720 -0.068289 132 175 241
0.149406 -0.154720 -0.068289 132 175 241
0.108439 0.082643 0.113756 59 53 117
0.098306 0.095852 0.124274 42 47 116
0.138782 -0.119582 -0.027413 70 63 148
0.139856 -0.169360 -0.064482 155 181 245
0.116464 -0.100412 0.000893 126 119 168
0.092076 -0.027755 0.068436 119 120 189
0.073250 0.018100 0.106060 52 33 70
0.091957 -0.085467 0.032337 74 63 144
0.084695 -0.090259 0.035389 181 192 250
0.083864 -0.085294 0.040076 89 86 177
0.081882 -0.079300 0.048396 152 161 233
0.077572 -0.081187 0.052408 48 41 128
0.056107 0.006009 0.115249 100 91 150
0.059419 -0.077882 0.068076 183 188 249
0.059419 -0.077882 0.068076 183 188 249
0.067482 -0.136233 0.022207 89 69 118
0.051756 -0.042252 0.099379 136 139 212
0.051756 -0.042252 0.099379 136 139 212
0.063138 -0.132275 0.027570 195 202 243
0.056723 -0.100871 0.051829 151 154 225
0.057221 -0.109658 0.046238 131 132 192
0.052478 -0.105282 0.049122 50 36 107
0.065858 -0.157714 0.015383 255 255 255
0.065858 -0.157714 0.015383 255 255 255
0.058494 -0.130808 0.032451 58 55 133
0.066963 -0.167055 0.008843 255 255 255
0.054175 -0.115406 0.045221 43 31 93
0.054175 -0.115406 0.045221 43 31 93
0.056564 -0.136279 0.030150 214 216 253
0.040546 -0.049879 0.102227 107 110 190
0.031048 -0.020002 0.121494 20 21 38
0.043823 -0.104076 0.057780 119 119 189
0.037246 -0.078117 0.082068 46 39 112
0.037246 -0.078117 0.082068 46 39 112
0.029970 -0.063027 0.095848 122 129 192
0.030355 -0.097585 0.070576 51 45 114
0.049928 -0.188367 0.004923 81 86 139
0.021003 -0.071631 0.096058 139 149 215
0.013542 0.119059 0.289232 255 255 255
0.011608 -0.000080 0.171433 176 178 248
0.008682 -0.028428 0.152698 153 166 238
-0.000360 -0.007227 0.178631 158 164 236
-0.005272 0.010657 0.200599 139 148 222
-0.005272 0.010657 0.200599 139 148 222
-0.005272 0.010657 0.200599 139 148 222
-0.017670 0.045259 0.236022 40 35 104
-0.023505 0.054496 0.247354 140 143 212
-0.014317 0.100835 0.313621 242 255 255
-0.017972 -0.029084 0.173034 153 163 226
-0.017073 -0.058088 0.144440 142 154 220
-0.020624 -0.007588 0.196318 117 143 208
-0.023109 -0.087647 0.110726 30 27 93
-0.023109 -0.087647 0.110726 30 27 93
-0.029939 -0.050550 0.154247 138 143 209
0.121261 0.152120 0.134934 114 124 198
0.123556 0.104022 0.105463 69 62 144
0.117727 0.130613 0.131953 44 34 101
0.106922 0.085502 0.111262 61 47 116
0.102281 0.097705 0.119357 48 43 111
0.117170 -0.131701 -0.009278 251 255 255
0.119042 -0.158856 -0.035745 202 214 246
0.103370 -0.092620 0.010691 82 83 156
0.106502 -0.123555 0.000967 255 255 255
0.057625 0.019920 0.102196 98 92 150
0.076786 -0.100917 0.026943 73 66 143
0.077127 -0.109738 0.024612 80 74 147
0.062288 -0.164711 0.019134 255 255 255
0.061753 -0.169789 0.015431 209 205 235
0.029413 -0.021757 0.108276 97 91 158
0.051511 -0.154694 0.026626 63 56 105
0.011345 0.037950 0.168358 120 133 192
0.003309 0.095371 0.231433 140 154 215
0.040912 -0.150405 0.028425 42 31 68
0.103188 -0.247967 0.140670 200 255 255
0.095047 -0.250761 0.162174 245 255 255
-0.009252 0.069401 0.236207 119 133 201
-0.008773 0.064532 0.230775 142 148 220
-0.017762 0.083283 0.250993 112 124 196
0.091234 -0.264137 0.180928 24 25 89
-0.018918 0.095052 0.272477 171 198 236
-0.026470 -0.039076 0.148128 99 114 182
-0.034186 -0.070706 0.077627 67 89 160
-0.036910 -0.004867 0.171740 63 56 130
-0.036910 -0.004867 0.171740 63 56 130
0.146492 0.219197 0.179398 159 184 230
0.139676 0.225265 0.211265 255 255 255
0.123341 0.209639 0.206016 236 255 255
0.123341 0.209639 0.206016 236 255 255
0.163624 -0.060810 -0.072378 129 174 234
0.162844 -0.057153 -0.061191 103 157 223
0.161029 -0.046201 -0.018920 111 162 223
0.159232 -0.062919 -0.057741 161 215 255
0.117919 0.199696 0.219164 255 255 255
0.110736 0.208265 0.234290 36 26 27
0.147476 -0.051854 -0.039846 27 40 72
0.102401 0.199807 0.184599 45 74 136
0.148277 -0.075145 -0.052408 20 31 79
0.124917 0.048226 0.082438 93 87 160
0.098889 0.206364 0.230388 50 21 39
0.116941 0.066125 0.103889 67 61 134
0.104781 0.089975 0.123821 50 49 114
0.084680 0.189431 0.226253 242 254 255
0.082645 0.194421 0.233921 240 250 255
0.096760 0.012319 0.074517 27 28 65
0.096725 0.012111 0.074983 27 28 65
0.096725 0.012111 0.074983 27 28 65
0.093352 -0.014552 0.066824 125 129 208
0.064586 0.109566 0.102112 36 29 38
0.062155 0.103921 0.099064 188 127 122
0.093730 -0.058321 0.045875 112 120 198
0.084929 -0.098049 0.015803 60 53 137
0.081110 -0.124355 0.010922 133 127 169
0.081705 -0.190898 -0.036538 97 110 174
0.067939 -0.123586 0.016181 236 239 255
0.065133 -0.124323 0.017491 214 220 252
0.085774 -0.237263 -0.066403 63 47 111
0.032071 0.098044 0.320530 122 70 97
0.073844 -0.210180 -0.051352 151 159 224
0.071702 -0.211651 -0.043547 59 65 144
0.070231 -0.211316 -0.052842 73 71 149
0.052356 -0.125670 0.021468 221 226 255
0.053777 -0.134294 0.019442 179 182 222
0.061220 -0.171781 -0.003713 229 237 255
0.074347 -0.257057 -0.099027 62 78 146
0.061363 -0.176500 -0.009038 240 251 255
0.033744 -0.038788 0.097825 48 42 126
0.013225 0.092023 0.308339 255 255 255
0.052306 -0.183350 -0.007880 196 202 247
0.011739 0.085912 0.321276 255 255 255
0.020224 -0.038902 0.101501 108 111 191
0.006000 0.047040 0.220965 140 148 214
0.045921 -0.186547 -0.008967 168 165 224
0.035633 -0.171324 0.006764 57 58 95
-0.001120 0.073084 0.329479 251 255 255
-0.005408 0.044116 0.231015 140 147 215
-0.002430 0.006322 0.184632 142 153 231
0.034495 -0.213367 -0.030783 131 215 247
-0.010259 0.047485 0.236879 122 133 204
-0.010259 0.047485 0.236879 122 133 204
0.033959 -0.208731 -0.023202 111 187 227
0.030164 -0.216723 -0.050350 50 92 175
-0.000193 -0.048201 0.128479 159 165 237
0.027175 -0.194681 0.012435 64 149 203
-0.019721 0.069361 0.314007 255 255 255
-0.021303 0.079890 0.341981 82 45 42
-0.023664 0.049146 0.249487 162 171 238
0.021023 -0.215713 -0.023139 126 187 243
0.013201 -0.209470 -0.076113 116 184 228
-0.025207 0.079555 0.332373 21 20 20
-0.030751 0.062296 0.258808 136 142 218
0.016655 -0.199203 0.025274 129 201 252
-0.033290 0.054566 0.253405 149 160 227
-0.020069 -0.069295 0.099019 60 81 158
-0.040260 0.072294 0.319854 242 255 255
-0.045135 -0.011305 0.160314 104 121 181
0.173607 -0.042438 0.012670 28 56 119
0.161724 -0.048756 -0.007438 32 67 114
0.160385 -0.074693 -0.051270 152 204 252
0.154795 -0.054070 -0.020240 23 29 65
0.151596 -0.075677 -0.040521 147 189 232
0.128298 0.040590 0.073050 119 127 195
0.171110 -0.253478 -0.037374 234 246 255
0.149473 -0.086744 -0.046263 26 62 101
0.118430 0.040912 0.091768 46 36 112
0.105230 0.075877 0.117682 109 117 183
0.110934 0.024633 0.084848 69 59 141
0.163990 -0.329715 -0.089071 113 182 246
0.151670 -0.263761 -0.026872 227 249 255
0.151179 -0.329271 -0.097522 136 194 249
0.151084 -0.330065 -0.097049 136 194 249
0.084533 0.051795 0.102574 105 112 168
0.107876 -0.095859 0.001558 190 200 248
0.108464 -0.134890 -0.007376 255 255 255
0.118686 -0.192348 -0.056365 116 124 196
0.128378 -0.270241 -0.050785 47 31 67
0.061105 0.115590 0.105474 186 124 119
0.115983 -0.291784 -0.067167 55 46 110
0.085868 -0.135039 0.006328 177 168 200
0.053240 0.007073 0.105681 102 100 170
0.055479 -0.011323 0.100274 70 60 135
0.082288 -0.195329 -0.033901 111 118 185
0.072601 -0.147745 0.007387 247 248 255
0.017731 0.112325 0.310562 89 27 106
0.017995 0.098132 0.281332 221 246 255
0.033433 -0.004633 0.109751 50 40 99
0.071494 -0.221665 -0.053335 162 169 234
0.051464 -0.158052 0.010593 225 227 251
0.065563 -0.229917 -0.151914 119 179 223
0.065563 -0.229917 -0.151914 119 179 223
0.047059 -0.159153 0.010786 37 40 69
0.024416 -0.050396 0.086035 150 158 235
0.019007 -0.029529 0.109300 134 143 218
0.060701 -0.226122 -0.156128 115 178 223
0.060701 -0.226122 -0.156128 115 178 223
0.001141 0.038026 0.202964 77 67 139
0.001141 0.038026 0.202964 77 67 139
0.004315 0.018026 0.176066 126 141 218
0.001229 0.021726 0.195886 117 129 205
0.046005 -0.206545 -0.024940 170 184 252
-0.017597 0.099111 0.271990 173 199 236
0.046272 -0.198195 -0.139151 20 26 105
-0.013642 0.051694 0.228574 120 123 191
-0.013642 0.051694 0.228574 120 123 191
0.041333 -0.225311 -0.063222 58 108 197
0.000750 -0.025919 0.143913 64 56 151
0.013010 -0.084861 0.054064 52 61 146
0.025995 -0.174092 0.018551 115 184 232
0.036249 -0.221671 -0.063146 112 197 247
0.036249 -0.221671 -0.063146 112 197 247
0.004488 -0.065386 0.066705 148 161 229
0.030414 -0.214731 -0.031529 48 123 188
-0.015056 0.009201 0.189493 78 92 177
-0.015056 0.009201 0.189493 78 92 177
0.004937 -0.081843 0.056263 57 53 126
0.004937 -0.081843 0.056263 57 53 126
0.003200 -0.074131 0.056091 69 76 146
0.003513 -0.083688 0.049371 115 120 198
-0.010821 -0.022007 0.150750 53 56 144
0.029018 -0.218251 -0.055761 109 174 228
-0.017903 0.004632 0.186275 138 158 234
-0.025199 0.034382 0.211256 63 66 139
0.023959 -0.214023 -0.019452 63 129 189
0.023959 -0.214023 -0.019452 63 129 189
0.026125 -0.218692 -0.065642 142 224 255
-0.035764 0.079159 0.253972 52 68 137
0.022930 -0.207848 -0.082491 115 191 243
-0.042842 0.084476 0.324294 254 255 255
-0.044441 0.086181 0.300559 210 244 255
-0.047007 0.087549 0.330416 50 19 27
-0.018432 -0.046646 0.125835 151 157 226
-0.018432 -0.046646 0.125835 151 157 226
0.007801 -0.142244 -0.146137 146 192 232
-0.051505 0.102232 0.273297 27 59 120
-0.050216 0.095498 0.261278 67 97 143
-0.015147 -0.086481 0.057398 115 139 206
-0.048764 0.067881 0.241609 111 122 188
-0.018699 -0.082923 0.025277 103 145 202
-0.041363 0.012843 0.182018 125 163 216
-0.035812 -0.020161 0.148904 132 140 210
-0.029666 -0.063989 0.089834 133 154 222
-0.026071 -0.077603 0.021266 102 153 204
-0.030613 -0.068425 0.032518 114 175 220
-0.039040 -0.060634 0.027823 108 166 204
-0.042283 -0.053880 0.005154 120 173 212
-0.092260 0.180003 0.017985 117 178 213
-0.097902 0.201038 0.055654 95 129 178
-0.100102 0.181017 0.183317 149 84 77
-0.094954 0.176569 0.047907 21 33 108
-0.098493 0.176868 0.004667 161 219 255
-0.103511 0.189220 0.037099 111 183 224
-0.106355 0.200835 0.051617 93 139 188
-0.107469 0.189903 0.023403 89 176 213
-0.107115 0.187679 0.014378 84 157 200
-0.107115 0.187679 0.014378 84 157 200
-0.108549 0.185091 -0.010375 77 122 161
-0.117930 0.200464 0.010563 158 203 248
-0.113021 0.181124 -0.035314 83 114 160
-0.121075 0.208077 0.022474 75 123 178
-0.115346 0.181747 -0.016857 51 61 123
-0.115158 0.173608 -0.023106 122 178 224
-0.115158 0.173608 -0.023106 122 178 224
-0.105858 0.132556 -0.110725 41 42 87
-0.115561 0.167718 -0.056032 123 165 211
-0.119112 0.177515 -0.031427 20 32 95
-0.119112 0.177515 -0.031427 20 32 95
-0.118043 0.170302 -0.050105 22 58 102
-0.112379 0.120485 -0.113046 113 165 207
-0.128788 0.194203 -0.027255 28 38 105
-0.129368 0.194539 -0.019005 105 185 224
-0.123773 0.166932 -0.053834 103 179 215
-0.119816 0.148763 -0.097879 42 45 105
-0.124157 0.149491 -0.082723 25 53 103
-0.126708 0.160514 -0.069504 36 47 100
-0.113265 0.097720 -0.137735 119 181 227
-0.121287 0.117028 -0.112971 82 109 173
-0.120921 0.107015 -0.129363 46 51 104
-0.118246 0.097886 -0.156487 45 43 106
-0.129873 0.145352 -0.087591 96 145 193
-0.143765 0.184512 -0.071162 57 57 123
-0.131641 0.122537 -0.116891 89 148 196
-0.125580 0.087572 -0.152087 92 106 160
-0.133109 0.114926 -0.123039 37 35 87
-0.146491 0.179406 -0.077849 45 78 135
-0.130038 0.099282 -0.142918 119 175 223
-0.125866 0.074960 -0.178006 98 159 212
-0.122001 0.051209 -0.204829 136 191 235
-0.130670 0.074570 -0.166152 125 207 242
-0.136466 0.101041 -0.142134 41 83 143
-0.138431 0.099022 -0.148595 113 158 207
-0.141763 0.114507 -0.137434 86 123 175
-0.133404 0.063087 -0.192796 134 197 243
-0.144193 0.099398 -0.150576 108 162 208
-0.146823 0.087610 -0.186617 30 29 99
-0.141173 0.058236 -0.243062 80 133 200
-0.141173 0.058236 -0.243062 80 133 200
-0.226253 0.223368 0.020068 188 147 143
-0.226253 0.223368 0.020068 188 147 143
-0.261141 0.204056 0.042812 202 158 157
-0.261141 0.204056 0.042812 202 158 157
-0.268540 0.202035 0.044710 209 173 169
0.188348 -0.050993 0.022432 129 132 201
0.189395 -0.302545 -0.031661 167 198 255
0.194999 0.050975 -0.090013 213 243 255
0.179140 -0.317457 -0.045848 97 116 207
0.176156 -0.305884 -0.056961 115 193 249
0.164390 -0.251767 -0.017317 181 192 247
0.170375 -0.326321 -0.078671 140 174 241
0.165268 -0.327444 -0.075599 25 28 131
0.148056 -0.262898 -0.019699 147 162 238
0.147463 -0.258948 -0.017484 113 77 75
0.148656 -0.271567 -0.027704 65 68 164
0.081379 0.189296 0.235240 255 255 255
0.081379 0.189296 0.235240 255 255 255
0.140003 -0.268557 -0.025824 80 68 128
0.141007 -0.280730 -0.039754 223 237 255
0.145553 -0.320686 -0.068970 105 111 214
0.139173 -0.282439 -0.044112 24 22 55
0.156602 -0.325785 -0.125240 109 63 56
0.143785 -0.311700 -0.078009 92 101 198
0.138452 -0.322674 -0.055656 151 195 250
0.149942 -0.328528 -0.123721 142 178 233
0.084386 0.076343 0.120816 29 27 54
0.123496 -0.296924 -0.057988 123 124 191
0.087964 -0.211479 0.100928 213 230 241
0.139311 -0.318697 -0.138161 111 66 66
0.123122 -0.321907 -0.073644 69 110 191
0.119987 -0.303743 -0.063550 89 90 147
0.119987 -0.303743 -0.063550 89 90 147
0.114103 -0.191489 -0.050964 117 123 188
0.125162 -0.328993 -0.102022 109 195 245
0.080935 -0.219424 0.095874 241 250 255
0.072222 -0.217352 0.134875 221 233 248
0.050204 0.200885 0.195147 51 31 36
0.094030 -0.114880 0.008049 236 243 255
0.101078 -0.183758 -0.026659 202 207 241
0.115056 -0.323887 -0.083002 109 178 233
0.064267 -0.186304 0.148346 96 95 171
0.050330 0.214045 0.178697 85 51 46
0.116385 -0.324496 -0.101883 111 183 236
0.059000 -0.209660 0.140389 254 255 255
0.065886 -0.215307 0.098712 245 252 255
0.104747 -0.305411 -0.084727 53 52 126
0.102781 -0.294642 -0.083990 107 145 197
0.098674 -0.264368 -0.068903 101 100 172
0.050816 -0.190302 0.149439 255 255 255
0.050345 -0.199879 0.137181 58 71 129
0.091459 -0.258110 -0.068225 100 103 177
0.091459 -0.258110 -0.068225 100 103 177
0.072343 -0.151319 0.009128 243 249 255
0.072343 -0.151319 0.009128 243 249 255
0.092199 -0.271358 -0.076934 56 51 123
0.071735 -0.159296 0.004055 237 247 255
0.068128 -0.125704 0.017816 199 211 248
0.049581 -0.048279 0.090055 79 76 158
-0.003312 0.082752 0.322105 244 255 255
0.090692 -0.281697 -0.093814 101 148 201
0.083031 -0.240947 -0.062753 54 48 131
0.077591 -0.212904 -0.045715 73 77 162
0.089904 -0.284063 -0.101300 120 177 228
0.078336 -0.243134 -0.063058 143 151 224
0.077376 -0.257740 -0.065608 61 58 134
0.043089 -0.204837 0.093296 50 63 146
0.078288 -0.258000 -0.074936 117 150 214
0.079655 -0.260162 -0.087884 51 47 136
0.029793 -0.034765 0.100992 168 176 244
0.079538 -0.262653 -0.115494 45 126 181
0.079538 -0.262653 -0.115494 45 126 181
0.053295 -0.176546 -0.000928 230 235 255
0.069025 -0.245010 -0.074184 95 128 196
0.031878 -0.057198 0.079378 143 153 231
0.033445 -0.202834 0.080118 129 163 232
0.067257 -0.244920 -0.081474 54 56 144
0.069141 -0.251076 -0.090625 26 34 122
-0.003119 0.035595 0.211108 149 159 228
-0.003119 0.035595 0.211108 149 159 228
-0.014673 0.084356 0.258548 133 151 218
0.030813 -0.086732 0.055786 41 45 139
0.030813 -0.086732 0.055786 41 45 139
0.026868 -0.069621 0.069979 140 153 227
0.026868 -0.069621 0.069979 140 153 227
0.063338 -0.240951 -0.084984 123 163 226
0.062624 -0.240813 -0.092144 107 159 222
0.065722 -0.245424 -0.110709 22 45 125
0.070756 -0.231461 -0.139930 154 182 231
0.041112 -0.195036 -0.011584 24 26 91
0.018710 -0.059799 0.078232 101 103 183
0.024412 -0.195575 0.058937 123 162 225
0.060400 -0.230122 -0.120805 49 118 168
0.001157 -0.030147 0.137169 101 114 197
0.051933 -0.235211 -0.081261 111 174 230
0.013890 -0.068937 0.071799 91 101 180
0.045371 -0.219400 -0.060429 149 205 255
0.042812 -0.219509 -0.051351 116 172 238
-0.037105 0.090917 0.289200 99 164 207
-0.001581 -0.044418 0.127201 137 148 223
-0.019921 0.016931 0.199478 63 75 153
-0.014230 -0.007123 0.173555 149 158 230
-0.050999 0.093427 0.326580 69 32 33
-0.021158 0.008206 0.192888 70 78 161
-0.021158 0.008206 0.192888 70 78 161
0.049872 -0.209111 -0.124897 119 187 227
-0.035329 0.064820 0.246635 157 170 238
-0.028811 0.035958 0.216763 159 174 241
-0.006456 -0.052849 0.114908 132 148 224
0.035962 -0.212275 -0.076281 101 192 237
-0.023704 -0.000439 0.181295 52 50 138
-0.054817 0.084524 0.310062 116 190 216
0.003375 -0.084983 0.050414 101 113 188
-0.059965 0.092731 0.320401 63 29 54
-0.035386 0.021447 0.202638 45 53 123
-0.045884 0.055807 0.232599 154 166 231
-0.003779 -0.077002 0.048030 47 51 120
-0.049378 0.072900 0.245367 47 61 129
-0.023422 -0.040051 0.132205 141 155 229
-0.032196 -0.012485 0.163388 129 145 214
0.028653 -0.177389 -0.115636 22 47 120
-0.018316 -0.064757 0.093650 134 145 217
-0.018316 -0.064757 0.093650 134 145 217
0.032731 -0.184537 -0.149085 119 169 210
0.032731 -0.184537 -0.149085 119 169 210
-0.064622 0.120717 0.270214 93 59 83
-0.036157 -0.024077 0.151490 140 153 221
-0.015601 -0.080143 0.039502 36 36 102
-0.052689 0.048931 0.196952 40 71 123
0.010778 -0.207352 -0.069302 41 99 166
-0.015583 -0.080147 0.032143 95 139 189
-0.013263 -0.103239 0.001852 116 152 207
-0.019521 -0.084608 0.021258 20 29 108
-0.019521 -0.084608 0.021258 20 29 108
-0.018901 -0.087119 0.016425 118 171 221
-0.045246 -0.047958 0.115241 48 56 136
-0.048427 -0.033688 0.123153 53 66 137
-0.019105 -0.096086 -0.016554 50 62 124
-0.092302 0.124246 0.295747 255 255 255
-0.092302 0.124246 0.295747 255 255 255
-0.045104 -0.049987 0.092951 57 91 155
-0.058284 0.188512 0.105760 41 28 52
-0.032443 -0.064569 0.025294 17 21 66
0.005579 -0.143482 -0.149680 113 72 66
-0.035122 -0.066725 0.017193 86 137 189
-0.020080 -0.029963 -0.083873 144 193 226
-0.043800 -0.052772 0.021088 42 42 120
-0.065827 0.137544 0.087470 34 36 95
-0.016735 -0.073490 -0.120780 44 45 112
-0.069955 0.152723 0.093440 41 32 81
-0.026758 -0.019755 -0.089676 158 171 192
-0.020794 -0.065077 -0.121967 95 118 172
-0.032889 -0.016168 -0.089020 109 157 202
-0.034196 -0.004395 -0.087779 45 45 106
-0.077637 0.151630 0.073991 107 164 205
-0.080449 0.166056 0.079306 108 146 193
-0.072278 0.154802 0.038153 82 157 197
-0.073976 0.153945 0.040934 102 176 214
-0.078416 0.160922 0.044765 65 140 184
-0.078805 0.159612 0.045563 65 140 184
-0.075945 0.163415 0.023968 126 199 234
-0.088883 0.169274 0.065718 103 143 188
-0.088883 0.169274 0.065718 103 143 188
-0.086771 0.161540 0.050206 87 173 210
-0.089024 0.169850 0.059198 22 27 77
-0.093429 0.174507 0.055308 102 162 205
-0.091893 0.173209 0.045416 115 195 230
-0.084605 0.176838 -0.000718 130 197 229
-0.097037 0.183655 0.049099 106 160 202
-0.097037 0.183655 0.049099 106 160 202
-0.107579 0.222199 0.056645 95 99 153
-0.112202 0.227702 0.053335 64 37 48
-0.109797 0.189130 0.012327 103 176 214
-0.113381 0.191848 0.005696 20 41 107
-0.101209 0.168402 -0.074494 182 120 112
-0.120187 0.184711 -0.022548 105 142 191
-0.117896 0.164475 -0.034700 27 53 99
-0.129463 0.199233 -0.006113 153 207 247
-0.129463 0.199233 -0.006113 153 207 247
-0.108154 0.141045 -0.107821 31 27 53
-0.129408 0.194405 -0.019072 104 184 221
-0.125037 0.171561 -0.048856 45 56 116
-0.129236 0.189627 -0.035661 112 162 204
-0.131548 0.181820 -0.037310 28 65 128
-0.107640 0.107172 -0.136467 39 36 78
-0.119369 0.149947 -0.090605 122 162 208
-0.110495 0.127612 -0.129462 141 127 166
-0.139800 0.208633 -0.029745 78 96 153
-0.136866 0.189778 -0.042782 119 161 205
-0.131517 0.162101 -0.074255 93 125 174
-0.108910 0.082712 -0.169737 32 40 98
-0.126695 0.136213 -0.096846 49 50 97
-0.139133 0.166779 -0.077399 111 160 203
-0.115827 0.072981 -0.174537 139 216 250
-0.115827 0.072981 -0.174537 139 216 250
-0.137888 0.145470 -0.100531 41 44 98
-0.125266 0.092132 -0.155552 86 97 147
-0.124811 0.088035 -0.156926 71 77 123
-0.147337 0.167375 -0.082922 26 34 101
-0.141695 0.129733 -0.121310 132 186 230
-0.141695 0.129733 -0.121310 132 186 230
-0.141727 0.130120 -0.128062 24 51 125
-0.142655 0.121613 -0.133013 35 28 82
-0.145279 0.128724 -0.133083 126 161 207
-0.126268 0.059944 -0.207710 21 66 136
-0.138158 0.090433 -0.160849 126 169 214
-0.133413 0.068892 -0.190132 33 41 115
-0.140893 0.090278 -0.165498 36 67 134
-0.140908 0.079718 -0.183659 21 27 98
-0.143577 0.083803 -0.179659 129 188 234
-0.135860 0.058857 -0.220251 125 184 233
-0.138262 0.062284 -0.234025 115 184 235
-0.138711 0.055381 -0.245635 28 57 143
-0.143968 0.057058 -0.238293 120 197 245
-0.144715 0.058231 -0.245140 27 67 151
-0.151075 0.070552 -0.223132 110 163 205
-0.149596 0.058080 -0.267636 149 206 246
0.207416 -0.037324 0.078690 236 253 255
0.207416 -0.037324 0.078690 236 253 255
0.199304 -0.021605 0.076402 32 42 91
0.136883 0.182914 0.190471 184 197 239
0.116606 0.182127 0.233770 255 255 255
0.116606 0.182127 0.233770 255 255 255
0.111953 0.185883 0.241457 69 25 27
0.112643 0.173565 0.225264 255 255 255
0.167518 -0.334029 -0.094847 91 168 235
0.105013 0.174764 0.225675 195 215 246
0.157272 -0.071063 -0.000233 29 68 116
0.099216 0.186046 0.235242 25 18 20
0.103948 0.173824 0.215156 239 250 255
0.083370 -0.210285 0.136569 160 98 88
0.078848 -0.199375 0.146106 243 255 255
0.078848 -0.199375 0.146106 243 255 255
0.094250 0.177761 0.231114 253 255 255
0.153074 -0.074203 -0.013125 25 27 62
0.134381 -0.319687 -0.052612 115 127 203
0.071705 -0.201536 0.150691 218 242 253
0.066158 -0.187280 0.162716 255 255 255
0.110888 0.057905 0.123083 127 131 196
0.098019 0.173036 0.192614 59 93 157
0.094575 0.171686 0.199436 53 87 146
0.078866 0.178411 0.239444 255 255 255
0.082800 0.181646 0.225704 243 255 255
0.074832 0.180810 0.243410 95 42 90
0.100179 0.073159 0.133556 101 117 188
0.096700 0.082401 0.142955 94 103 172
0.133686 -0.368533 -0.106192 106 61 54
0.055056 -0.185826 0.159833 253 255 255
0.048530 -0.186801 0.158110 39 31 94
0.064650 0.172855 0.218834 197 215 247
0.085883 0.062158 0.125097 100 107 163
0.057890 -0.219517 0.109675 67 88 182
0.075644 0.169621 0.185723 156 177 238
0.134945 -0.322300 -0.130140 121 195 244
0.061014 0.179376 0.224593 195 206 236
0.060596 0.185731 0.227563 61 33 67
0.053554 -0.209461 0.119411 39 48 110
0.043569 -0.188419 0.151695 41 41 110
0.113128 -0.294180 -0.068579 105 106 168
0.051813 -0.205207 0.121859 151 181 228
0.072091 0.171398 0.184796 36 65 136
0.079815 0.058065 0.119659 30 25 49
0.057019 0.178438 0.215938 77 95 140
0.077707 0.067309 0.123128 91 92 135
0.109349 -0.327282 -0.090225 135 198 246
0.106140 -0.282874 -0.067890 95 89 158
0.045652 -0.208768 0.110634 64 64 144
0.110029 -0.312301 -0.093315 53 95 170
0.117403 -0.320489 -0.119113 117 197 244
0.124171 -0.309143 -0.135384 134 205 248
0.015943 0.092858 0.276167 140 47 45
0.101849 -0.297336 -0.082312 111 146 205
0.100368 -0.276092 -0.072084 63 48 124
0.036693 -0.184943 0.120388 54 59 125
0.037920 -0.200879 0.103820 61 63 139
-0.015114 0.085592 0.325271 44 39 120
0.093202 -0.278071 -0.080210 119 147 214
0.092014 -0.266845 -0.074877 132 145 218
0.035872 -0.203675 0.091711 111 129 200
0.102926 -0.301493 -0.118789 39 92 162
0.102926 -0.301493 -0.118789 39 92 162
0.037673 -0.200713 0.083445 43 73 158
0.037673 -0.200713 0.083445 43 73 158
0.111992 -0.287821 -0.142462 108 72 71
-0.020939 0.088493 0.325550 82 46 81
0.087855 -0.260973 -0.072123 58 59 139
0.106499 -0.295726 -0.132704 99 168 219
0.084803 -0.238263 -0.059295 129 131 206
0.084803 -0.238263 -0.059295 129 131 206
0.085720 -0.251427 -0.066079 120 118 201
0.089966 -0.279726 -0.089623 46 42 123
0.089087 -0.286600 -0.099859 132 186 243
-0.021011 0.082152 0.302218 255 255 255
0.089171 -0.287607 -0.104765 22 59 146
-0.030974 0.086831 0.326441 63 25 24
0.073865 -0.215467 -0.047029 150 162 238
0.039371 -0.055152 0.089335 67 77 162
0.078976 -0.255986 -0.076216 125 154 227
-0.022921 0.082801 0.294630 138 195 227
0.086208 -0.281940 -0.106990 128 188 240
0.080776 -0.269450 -0.093594 108 172 222
0.084325 -0.275071 -0.105863 34 82 159
0.029075 -0.038091 0.101934 160 163 232
0.068537 -0.246826 -0.073401 109 133 209
0.045697 -0.198147 -0.015216 179 195 255
0.085820 -0.247012 -0.138303 132 188 237
0.056963 -0.225924 -0.061580 105 113 186
-0.026818 0.057872 0.243664 127 139 207
0.067343 -0.257780 -0.100500 127 190 241
0.061254 -0.237192 -0.080131 67 77 170
0.080204 -0.247028 -0.135036 87 47 50
0.062215 -0.241408 -0.091210 128 181 241
-0.034014 0.069641 0.252825 139 150 219
0.013461 -0.190739 0.051736 49 66 156
0.015361 -0.058360 0.082664 24 27 35
-0.016919 0.002602 0.185131 137 155 227
0.058297 -0.237517 -0.087913 28 66 153
0.026912 -0.200566 -0.006187 102 187 238
0.055658 -0.233189 -0.094545 119 192 238
-0.062468 0.096684 0.315099 59 28 39
0.020222 -0.200165 0.009735 134 202 248
0.066265 -0.233226 -0.127505 19 34 122
-0.051237 0.100927 0.273187 27 45 123
0.014417 -0.100081 0.039613 36 46 129
0.062706 -0.229237 -0.127492 142 206 248
0.040328 -0.218368 -0.071216 125 215 253
0.031940 -0.215667 -0.048379 33 87 187
0.031940 -0.215667 -0.048379 33 87 187
0.003569 -0.069944 0.067599 123 140 210
0.005051 -0.189341 0.029160 155 199 250
-0.032932 0.007282 0.185092 151 170 241
0.067935 -0.233820 -0.154166 109 66 62
-0.037032 0.009885 0.189300 52 71 147
-0.061302 0.130326 0.287197 83 36 39
0.006762 -0.093522 0.042001 147 170 232
-0.044722 0.039131 0.214816 34 52 130
0.029607 -0.215822 -0.055589 153 211 255
0.025061 -0.216372 -0.043989 129 193 245
0.010628 -0.202557 -0.001464 125 183 243
-0.044774 0.035012 0.207622 140 168 227
-0.035307 -0.004405 0.171168 33 38 125
0.007484 -0.101819 0.028917 105 126 193
0.062081 -0.232977 -0.156260 113 78 95
0.024513 -0.216450 -0.052092 31 74 172
0.001307 -0.191401 0.017275 168 205 255
-0.052482 0.055336 0.223020 49 64 131
-0.052482 0.055336 0.223020 49 64 131
-0.038308 -0.004414 0.166151 97 122 191
0.009760 -0.208292 -0.019756 132 174 243
-0.047376 0.027986 0.194826 60 79 138
-0.047376 0.027986 0.194826 60 79 138
-0.000154 -0.090280 0.034882 25 30 116
0.000949 -0.101724 0.022788 109 140 201
0.000949 -0.101724 0.022788 109 140 201
-0.059928 0.076226 0.227203 82 120 165
0.043635 -0.171896 -0.121019 106 78 74
-0.056454 0.062956 0.207676 57 73 126
-0.004582 -0.190296 -0.000996 117 154 227
-0.004079 -0.102648 0.016902 101 129 184
-0.053727 0.045041 0.189120 93 160 202
-0.009549 -0.192284 -0.000605 44 59 141
-0.046427 -0.023388 0.141157 66 62 137
-0.019342 -0.072509 0.039811 90 149 199
-0.014986 -0.091934 0.015989 39 40 116
-0.012829 -0.101652 0.001066 125 161 212
-0.012829 -0.101652 0.001066 125 161 212
-0.036607 0.122028 0.115146 80 82 130
-0.012617 -0.112656 -0.010231 24 28 88
0.036992 -0.129016 -0.150916 166 224 255
-0.041510 -0.062810 0.072758 105 171 223
-0.056321 -0.015616 0.119008 168 202 247
-0.056321 -0.015616 0.119008 168 202 247
-0.042272 0.106084 0.106657 101 114 164
-0.019057 -0.095128 -0.009111 99 154 202
0.007634 -0.127671 -0.090970 121 193 232
0.007634 -0.127671 -0.090970 121 193 232
-0.054941 -0.034522 0.102224 36 68 137
-0.043321 0.103671 0.102384 21 25 53
-0.043321 0.103671 0.102384 21 25 53
-0.026724 -0.075967 0.012514 121 180 227
-0.031342 -0.067055 0.021235 95 127 184
-0.026010 -0.079309 -0.007945 45 68 133
-0.034884 -0.065629 0.016815 99 162 210
-0.025709 -0.062628 -0.022334 93 160 203
-0.086496 0.171825 0.195745 167 128 127
-0.012230 -0.077092 -0.070266 154 183 212
-0.038584 -0.059059 0.005265 28 43 117
-0.053704 0.100604 0.083367 27 34 95
-0.042944 -0.053060 0.015820 91 131 185
-0.000299 -0.095636 -0.116418 156 214 245
-0.064391 0.134094 0.093565 103 133 180
-0.064391 0.134094 0.093565 103 133 180
-0.066540 0.157173 0.100440 41 33 78
-0.051218 0.090426 0.037773 103 158 203
-0.100247 0.172929 0.188377 143 85 71
-0.013197 -0.063634 -0.104209 32 34 91
-0.013197 -0.063634 -0.104209 32 34 91
-0.058318 0.089052 0.051829 98 152 198
-0.067247 0.131946 0.085009 98 145 188
-0.052394 0.096264 0.028556 41 58 116
-0.040209 0.091802 -0.006246 173 102 98
-0.101582 0.180360 0.175736 174 135 133
-0.059347 0.112496 0.042934 104 168 210
-0.052307 0.088725 0.015878 113 185 226
-0.055512 0.131525 0.016218 30 101 155
-0.066211 0.131616 0.042931 85 145 188
-0.072897 0.137201 0.060227 111 170 212
-0.070334 0.135613 0.051259 118 178 215
-0.088049 0.219224 0.081644 35 27 29
-0.073569 0.137599 0.023940 130 195 233
-0.084900 0.165258 0.041505 43 111 165
-0.094434 0.179382 0.067765 97 142 193
-0.097854 0.212451 0.080704 35 26 29
-0.079690 0.162028 0.019815 133 211 239
-0.079690 0.162028 0.019815 133 211 239
-0.082338 0.165938 0.027390 44 66 129
-0.097263 0.204365 0.072394 32 26 49
-0.102200 0.179466 0.047768 25 54 122
-0.096651 0.176176 0.030568 109 186 221
-0.098402 0.181672 0.036096 114 179 214
-0.106025 0.224653 0.064262 52 29 34
-0.087484 0.172830 -0.004891 144 205 236
-0.109248 0.215884 0.059980 108 108 163
-0.086594 0.177863 -0.019491 86 74 96
-0.097752 0.166622 -0.027103 147 180 206
-0.114100 0.189622 0.007279 19 47 112
-0.118706 0.194717 0.009010 27 49 117
-0.119580 0.190560 0.004041 117 183 225
-0.109222 0.179146 -0.030497 23 51 112
-0.124681 0.195723 0.005793 113 194 229
-0.120689 0.182630 -0.021503 90 136 188
-0.130820 0.201697 -0.000264 27 28 105
-0.130820 0.201697 -0.000264 27 28 105
-0.125910 0.179719 -0.035342 67 107 166
-0.131431 0.181844 -0.030894 100 163 204
-0.131431 0.181844 -0.030894 100 163 204
-0.135542 0.198670 -0.016994 149 194 238
-0.140007 0.203721 -0.016336 146 182 235
-0.125956 0.171216 -0.064066 25 40 109
-0.141373 0.202389 -0.020570 22 26 63
-0.120484 0.147499 -0.096451 33 37 99
-0.141982 0.187641 -0.038826 36 46 120
-0.135032 0.178736 -0.061608 129 193 234
-0.113521 0.096158 -0.137355 169 231 255
-0.113521 0.096158 -0.137355 169 231 255
-0.120522 0.124590 -0.115887 92 134 187
-0.143674 0.200243 -0.056274 71 73 127
-0.135750 0.155278 -0.089728 23 63 134
-0.118973 0.073316 -0.170729 21 66 130
-0.142488 0.138103 -0.113676 32 42 114
-0.139558 0.114936 -0.127313 42 38 99
-0.151072 0.170773 -0.087443 41 52 118
-0.141579 0.130181 -0.121555 151 198 245
-0.130062 0.084038 -0.161307 63 56 119
-0.130534 0.074819 -0.166164 125 214 246
-0.143658 0.099733 -0.145990 29 73 139
-0.137971 0.057994 -0.247355 50 102 175
-0.134547 0.064226 -0.258671 134 195 244
-0.226223 0.232511 0.018045 209 167 164
-0.226223 0.232511 0.018045 209 167 164
-0.151995 0.081744 -0.214453 21 25 62
-0.154389 0.071654 -0.235759 116 167 221
-0.267958 0.213792 0.042841 241 200 204
-0.267958 0.213792 0.042841 241 200 204
0.184353 -0.078027 0.037809 154 150 214
0.184353 -0.078027 0.037809 154 150 214
0.183705 -0.074602 0.032190 147 146 207
0.149880 -0.267115 -0.014915 156 173 243
0.165100 -0.268590 -0.044294 132 140 185
0.148134 -0.273849 -0.021461 203 231 255
0.146709 -0.318550 -0.042673 88 84 175
0.144079 -0.272154 -0.016364 149 165 241
0.165562 -0.270917 -0.053906 124 130 171
0.175604 -0.314076 -0.094998 110 187 246
0.181361 -0.070764 0.019566 194 195 245
0.063091 -0.183286 0.166013 137 120 150
0.172667 -0.076213 0.029991 132 136 202
0.160396 -0.270780 -0.053454 31 30 71
0.064517 -0.196802 0.150279 166 93 95
0.140200 -0.283709 -0.032446 34 33 142
0.140200 -0.283709 -0.032446 34 33 142
0.167218 -0.331426 -0.105771 179 251 255
0.122734 0.175552 0.228658 101 27 24
0.169506 -0.073152 0.020622 136 164 233
0.138744 -0.286239 -0.037245 218 232 255
0.151374 -0.280485 -0.057790 47 45 88
0.136719 -0.280244 -0.032356 161 184 246
0.073340 -0.216430 0.109301 24 23 44
0.073340 -0.216430 0.109301 24 23 44
0.166360 -0.069803 0.021415 24 34 86
0.166392 -0.331357 -0.111978 109 56 55
0.143878 -0.330245 -0.075355 111 178 247
0.131508 -0.280739 -0.030239 56 48 115
0.074098 -0.211562 0.100169 243 255 255
0.107060 0.178238 0.238896 199 196 231
0.052894 -0.186487 0.147732 255 255 255
0.160600 -0.065885 0.017567 29 42 77
0.070743 -0.208095 0.093901 253 255 255
0.161430 -0.080467 -0.002545 27 66 130
0.055955 -0.214127 0.102385 68 92 192
0.134553 -0.260499 -0.060023 63 45 81
0.123441 0.178482 0.176740 138 178 231
0.054367 -0.210908 0.097002 55 72 183
0.094685 0.170018 0.214726 205 221 252
0.084785 0.168984 0.217404 214 227 254
0.118273 -0.317184 -0.084248 143 203 250
0.039051 -0.185718 0.114849 111 122 188
0.051368 -0.199533 0.080774 196 199 250
0.134645 -0.330204 -0.132505 113 70 67
0.052737 -0.198446 0.074553 169 102 96
0.037764 -0.200611 0.093126 125 137 209
0.100659 -0.267799 -0.063229 67 53 123
0.100929 -0.290856 -0.076578 142 147 218
0.100929 -0.290856 -0.076578 142 147 218
0.111644 -0.320689 -0.110871 111 195 243
0.101347 -0.110914 0.008872 227 221 251
0.042809 -0.194528 0.065477 155 177 234
-0.015618 0.084195 0.302462 246 255 255
0.099661 -0.299768 -0.088434 136 187 242
0.099661 -0.299768 -0.088434 136 187 242
0.105585 -0.315148 -0.107403 125 182 244
0.095017 -0.261059 -0.064429 54 41 124
0.122100 -0.311567 -0.138622 105 58 55
0.094997 -0.289809 -0.083468 113 158 215
0.093092 -0.291412 -0.087208 45 45 141
0.019927 -0.176339 0.095810 47 47 108
0.088055 -0.255369 -0.063845 47 38 125
-0.040824 0.083778 0.324482 255 255 255
0.091636 -0.296534 -0.102804 117 171 231
0.084001 -0.271724 -0.083511 132 163 236
0.076740 -0.230028 -0.054784 118 115 188
-0.027551 0.093504 0.279787 177 213 250
0.096842 -0.291247 -0.122232 20 84 152
0.039083 -0.052936 0.091815 65 58 142
0.059708 -0.184408 -0.008358 216 224 252
0.044966 -0.080940 0.066403 119 133 202
0.074566 -0.234361 -0.059800 52 65 143
0.071009 -0.232558 -0.061263 112 129 212
0.080020 -0.269517 -0.096118 134 193 248
0.052030 -0.194711 -0.013577 83 99 183
0.065988 -0.225855 -0.057847 152 177 246
0.031360 -0.072487 0.074425 72 56 139
0.081639 -0.270729 -0.113624 65 151 210
0.030934 -0.098520 0.046394 139 153 217
0.030934 -0.098520 0.046394 139 153 217
0.056069 -0.227703 -0.060867 102 114 194
0.019151 -0.192006 0.018049 94 168 225
0.089686 -0.256741 -0.138249 133 195 240
0.096792 -0.168451 -0.110274 40 105 177
0.021332 -0.079699 0.063183 131 147 211
-0.051054 0.100179 0.272648 25 53 130
-0.027516 0.009958 0.188499 159 184 249
-0.027516 0.009958 0.188499 159 184 249
0.052608 -0.220554 -0.062518 181 235 255
0.065276 -0.250225 -0.100611 27 86 157
0.068098 -0.253189 -0.111956 117 199 246
0.043804 -0.218104 -0.052942 164 227 255
0.057401 -0.238895 -0.087001 35 73 157
0.016245 -0.080207 0.058618 117 128 191
0.061286 -0.244020 -0.097398 103 187 235
-0.047190 0.069792 0.239404 112 129 197
-0.061027 0.100512 0.277702 138 200 245
0.050880 -0.227370 -0.073031 149 193 252
0.059083 -0.240706 -0.094403 22 53 143
0.059083 -0.240706 -0.094403 22 53 143
-0.039250 0.035992 0.203507 47 56 136
0.053508 -0.237273 -0.092631 149 215 255
-0.048210 0.042358 0.211309 33 56 121
0.051423 -0.230754 -0.091087 40 105 177
0.012996 -0.101104 0.034786 116 137 196
0.012996 -0.101104 0.034786 116 137 196
-0.055574 0.082190 0.239225 96 127 184
-0.006275 -0.177091 0.030121 100 126 200
-0.038142 -0.004547 0.165829 131 147 214
0.039819 -0.219228 -0.070739 135 228 255
0.002439 -0.079382 0.053449 52 47 116
0.021406 -0.214212 -0.042578 45 82 174
-0.056352 0.083460 0.231123 59 77 123
0.047426 -0.226631 -0.095236 119 207 246
0.041562 -0.218243 -0.081255 105 197 241
-0.036656 -0.020771 0.143352 39 39 131
-0.006475 -0.183227 0.012300 37 50 134
-0.057816 0.075368 0.219232 57 65 116
0.032715 -0.218547 -0.077210 131 209 255
0.003409 -0.100800 0.026794 42 45 115
-0.000473 -0.197226 -0.011947 129 166 236
-0.000473 -0.197226 -0.011947 129 166 236
0.045354 -0.213611 -0.100700 111 189 232
-0.002688 -0.082366 0.043292 85 112 177
-0.047042 0.041129 0.175872 50 59 109
0.041041 -0.210519 -0.095294 123 211 251
-0.020149 -0.069526 0.076919 50 94 174
0.048180 -0.215933 -0.116138 24 101 166
0.048180 -0.215933 -0.116138 24 101 166
-0.027966 -0.061132 0.087980 131 162 227
0.059954 -0.217962 -0.139974 114 89 91
0.008973 -0.209260 -0.046141 150 179 246
0.014812 -0.214575 -0.059371 100 126 200
0.030357 -0.212645 -0.086582 142 227 255
0.044891 -0.208337 -0.110980 125 208 247
0.024330 -0.211419 -0.078229 123 221 255
0.024330 -0.211419 -0.078229 123 221 255
-0.031812 -0.057959 0.090574 36 50 143
-0.004740 -0.094037 0.026105 105 145 193
-0.012011 -0.084233 0.029702 52 77 146
-0.006308 -0.104912 0.008670 100 126 180
-0.015260 -0.173829 -0.008801 127 137 207
-0.013399 -0.184918 -0.022664 53 62 140
-0.014010 -0.090170 0.015096 34 39 112
-0.023464 -0.070306 0.034981 73 125 177
-0.056104 -0.019032 0.112039 29 30 97
-0.016011 -0.098357 -0.001289 25 35 98
0.004561 -0.180283 -0.075795 111 182 222
-0.047999 -0.047834 0.073545 162 212 255
-0.025295 -0.063764 0.025094 30 29 106
-0.006919 -0.131828 -0.045611 25 46 116
-0.038518 -0.060071 0.034897 103 198 237
-0.023445 -0.083253 -0.003208 122 174 225
-0.029195 -0.073034 0.005232 103 165 213
0.011663 -0.146397 -0.101225 128 202 238
-0.040902 -0.053986 0.029414 28 87 158
-0.041389 0.054548 0.075464 87 105 158
-0.043164 0.077851 0.088685 104 128 175
-0.018924 -0.085480 -0.027469 67 108 164
-0.035729 -0.062068 0.009046 104 177 221
-0.044195 0.067059 0.080300 23 23 41
-0.027564 -0.067177 -0.010091 88 162 212
-0.059246 -0.028798 0.062602 26 40 114
-0.046826 0.079009 0.083022 104 135 183
0.009615 -0.101765 -0.097021 126 187 226
0.009615 -0.101765 -0.097021 126 187 226
-0.049590 0.108186 0.099430 31 25 48
-0.038040 -0.058191 0.004742 22 33 115
-0.051316 0.116166 0.101158 106 127 172
-0.009342 -0.054721 -0.050640 24 43 120
-0.048192 0.076104 0.074317 97 123 174
-0.051943 0.095583 0.088344 99 142 185
-0.052972 0.107410 0.091444 25 25 59
-0.047505 -0.041061 0.012642 98 166 211
-0.051192 0.067274 0.062942 32 26 84
-0.051192 0.067274 0.062942 32 26 84
-0.012975 -0.078910 -0.069694 132 203 239
-0.052293 -0.007666 0.028462 34 37 95
-0.056418 0.106041 0.084770 26 27 57
-0.056418 0.106041 0.084770 26 27 57
-0.056814 0.101965 0.080990 112 157 201
-0.096831 0.176772 0.179938 186 153 149
-0.030507 -0.021657 -0.023762 161 224 248
0.000773 -0.091856 -0.110916 20 25 97
0.006591 -0.146269 -0.145018 170 219 250
0.005415 -0.147339 -0.148853 149 85 77
-0.054590 0.088252 0.058885 78 134 184
-0.049974 0.078560 0.045583 47 75 137
-0.046812 0.072555 0.036778 41 36 106
-0.035714 -0.004183 -0.020462 39 45 106
-0.066077 0.144198 0.096487 93 108 162
-0.046431 0.079168 0.030690 83 127 177
-0.062875 0.119974 0.071790 136 178 221
-0.047275 0.078488 0.025020 18 30 95
-0.063113 0.118389 0.064703 122 166 210
-0.039487 0.080016 0.003933 145 203 239
-0.065530 0.121798 0.067740 28 43 112
-0.069044 0.137550 0.077020 107 150 199
-0.063186 0.117120 0.057098 104 168 207
-0.071719 0.156079 0.087937 90 131 180
-0.071669 0.150460 0.084109 36 36 96
-0.065626 0.120156 0.060345 28 36 108
-0.065626 0.120156 0.060345 28 36 108
-0.061008 0.118024 0.051039 122 184 224
-0.069693 0.133703 0.072937 29 31 92
-0.037464 0.092655 -0.002303 168 203 230
-0.014114 -0.082010 -0.118309 26 29 98
-0.053687 0.105679 0.029086 109 176 211
-0.060927 0.121311 0.036543 116 185 221
-0.031169 -0.014231 -0.074079 34 36 98
-0.069534 0.134936 0.056904 33 56 118
-0.069534 0.134936 0.056904 33 56 118
-0.069575 0.137115 0.050552 111 176 215
-0.079927 0.165373 0.079619 125 155 200
-0.077603 0.146925 0.064234 107 160 203
-0.077603 0.146925 0.064234 107 160 203
-0.083985 0.169279 0.076611 54 48 110
-0.083985 0.169279 0.076611 54 48 110
-0.063382 0.135669 0.011327 25 68 123
-0.061555 0.134462 0.006705 157 223 251
-0.089584 0.168899 0.070862 25 25 87
-0.088412 0.169848 0.060273 27 25 84
-0.080076 0.161508 0.040697 111 178 219
-0.088513 0.166752 0.056703 106 168 211
-0.084159 0.166879 0.040829 25 86 154
-0.093120 0.175123 0.055544 112 181 221
-0.098129 0.187101 0.063991 95 132 189
-0.098129 0.187101 0.063991 95 132 189
-0.086100 0.146421 0.017214 27 83 137
-0.085562 0.163581 0.019722 29 98 157
-0.102935 0.210437 0.069773 78 78 120
