ply
format ascii 1.0
element vertex 1215
property float x
property float y
property float z
property uchar blue
property uchar green
property uchar red
end_header
-1.526216 3.557776 -1.490267 63 36 26
-1.526216 3.557776 -1.490267 63 36 26
-1.593723 1.401361 -1.125054 167 132 118
-1.669312 -0.270606 -0.727072 64 32 21
-1.522917 3.467230 -1.482462 72 37 33
-1.522917 3.467230 -1.482462 72 37 33
-1.672468 -1.134308 -0.691361 97 66 69
-1.677410 -1.330734 -0.655480 167 132 118
-1.589285 1.350648 -1.109716 170 131 116
-1.676849 -1.533627 -0.641503 136 90 82
-1.665581 -1.096080 -0.695420 83 72 82
-1.661823 -1.049127 -0.693545 157 123 117
-1.661823 -1.049127 -0.693545 157 123 117
-1.657404 -1.058985 -0.698116 165 136 131
-1.673255 -0.700001 -0.611258 33 22 18
-1.574290 1.443476 -1.120234 167 134 118
-1.576391 1.378320 -1.098295 172 135 121
-1.544479 3.077601 -1.253341 160 117 108
-1.660449 -1.514891 -0.632175 179 140 125
-1.563262 1.501703 -1.137086 166 132 116
-1.546120 2.856527 -1.211617 186 142 125
-1.546120 2.856527 -1.211617 186 142 125
-1.582795 0.854990 -1.012603 122 77 66
-1.582795 0.854990 -1.012603 122 77 66
-1.640378 -0.948463 -0.694726 128 89 75
-1.647507 -1.312822 -0.651941 100 68 57
-1.647507 -1.312822 -0.651941 100 68 57
-1.477418 3.720606 -1.549741 24 17 20
-1.638195 -0.330468 -0.682148 202 158 141
-1.681400 -1.838249 -0.447625 214 171 156
-1.488165 3.519867 -1.473229 61 43 36
-1.633442 -1.060541 -0.687261 118 74 61
-1.633442 -1.060541 -0.687261 118 74 61
-1.621200 0.006114 -0.749624 51 32 25
-1.715971 -2.899196 -0.237120 168 128 110
-1.643156 -1.532033 -0.610304 136 91 80
-1.629051 -1.123745 -0.670127 107 65 52
-1.621716 -0.225636 -0.708800 56 34 29
-1.634703 -1.342505 -0.637526 176 139 125
-1.632535 -1.291830 -0.644093 152 117 107
-1.549022 1.347970 -1.080855 166 134 121
-1.543334 1.583756 -1.106478 97 67 62
-1.628243 -1.252204 -0.635283 165 130 116
-1.686958 -2.666246 -0.314874 194 146 134
-1.686958 -2.666246 -0.314874 194 146 134
-1.618785 -1.075694 -0.674802 185 146 132
-1.636140 -1.504241 -0.568175 144 96 90
-1.620726 -1.174250 -0.648990 148 123 119
-1.627699 -1.511509 -0.607789 178 139 125
-1.627699 -1.511509 -0.607789 178 139 125
-1.618195 -0.412240 -0.650866 157 107 85
-1.539513 1.314535 -1.068536 108 70 58
-1.553373 0.871383 -0.992709 131 85 74
-1.593915 0.280736 -0.769758 44 25 28
-1.556089 0.791992 -0.966103 138 96 83
-1.466672 3.569167 -1.433669 53 27 27
-1.466672 3.569167 -1.433669 53 27 27
-1.592473 0.079692 -0.737375 56 29 25
-1.611512 -1.273608 -0.632923 106 64 57
-1.611512 -1.273608 -0.632923 106 64 57
-1.465882 3.483736 -1.409896 60 36 36
-1.603738 -1.130107 -0.650206 184 142 130
-1.615598 -1.532087 -0.584426 131 84 76
-1.615598 -1.532087 -0.584426 131 84 76
-1.592806 -0.120121 -0.697546 60 32 31
-1.443112 3.624544 -1.511176 96 83 99
-1.666308 -2.707383 -0.283375 155 102 82
-1.663327 -2.708996 -0.284614 155 102 81
-1.604374 -1.272875 -0.587829 149 113 107
-1.562116 0.525513 -0.817705 160 114 103
-1.562116 0.525513 -0.817705 160 114 103
-1.592772 0.117503 -0.640015 199 154 141
-1.492656 2.635204 -1.183205 61 15 8
-1.492656 2.635204 -1.183205 61 15 8
-1.590239 -1.405478 -0.614032 192 148 131
-1.529569 0.757804 -0.939909 124 83 74
-1.498449 2.491075 -1.105967 55 27 16
-1.506308 1.345013 -1.055831 173 130 115
-1.583153 -1.260773 -0.628494 166 135 120
-1.500138 1.443495 -1.086939 169 134 120
-1.482076 2.571079 -1.163860 48 21 11
-1.514022 0.927794 -0.985101 96 67 63
-1.576682 -1.149188 -0.627493 128 87 78
-1.576682 -1.149188 -0.627493 128 87 78
-1.569706 -0.981725 -0.657660 189 146 129
-1.546565 0.509524 -0.782951 215 166 150
-1.546565 0.509524 -0.782951 215 166 150
-1.475364 2.659149 -1.168223 170 139 124
-1.473076 2.618409 -1.176911 198 136 120
-0.154394 0.930222 -8.503830 110 75 71
-1.505309 0.971032 -0.987225 96 72 72
-1.560132 -0.293139 -0.668621 150 104 96
-1.568296 -1.184034 -0.617985 139 95 82
-1.568296 -1.184034 -0.617985 139 95 82
-1.559589 -0.337663 -0.666267 169 115 104
-1.462811 3.003903 -1.203120 46 27 19
-1.563821 -1.229823 -0.620081 65 46 65
-1.500358 0.789880 -0.953780 124 87 79
-1.539990 0.119340 -0.724705 208 162 144
-1.539990 0.119340 -0.724705 208 162 144
-1.556250 -1.161220 -0.614643 185 146 132
-1.556250 -1.161220 -0.614643 185 146 132
-1.409870 3.576995 -1.433228 78 53 51
-1.618083 -2.658163 -0.263601 194 149 135
-1.618083 -2.658163 -0.263601 194 149 135
-1.489388 0.959838 -0.972917 134 130 135
-1.490989 0.928456 -0.960538 136 132 138
-1.538688 -0.083421 -0.691441 215 165 145
-1.538688 -0.083421 -0.691441 215 165 145
-1.548409 -1.042248 -0.632448 116 76 64
-1.548409 -1.042248 -0.632448 116 76 64
-1.548409 -1.042248 -0.632448 116 76 64
-1.472587 1.467344 -1.058257 105 67 62
-1.476863 1.311788 -1.032056 97 61 53
-1.551803 -1.262210 -0.597064 177 141 123
-1.537882 -0.935159 -0.654956 111 73 61
-1.558274 -1.672645 -0.537689 103 65 60
-1.449757 2.626657 -1.147721 207 137 120
-1.545442 -1.204480 -0.605631 156 124 119
-1.471931 1.279854 -1.019347 159 123 107
-1.471931 1.279854 -1.019347 159 123 107
-1.468793 1.347944 -1.035764 99 62 48
-1.607813 -2.583170 -0.244352 157 107 85
-1.101132 3.599872 -3.103719 160 125 105
-1.534335 -0.316513 -0.654718 206 162 139
-1.534335 -0.316513 -0.654718 206 162 139
-1.448619 2.529187 -1.137257 209 139 122
-1.448619 2.529187 -1.137257 209 139 122
-1.406136 3.283607 -1.371499 130 95 85
-1.538164 -1.297340 -0.599562 156 123 107
-1.533129 -1.173532 -0.608284 123 80 71
-1.598165 -2.828598 -0.228451 145 93 76
-1.534373 -1.278000 -0.579893 118 79 65
-1.451789 1.328474 -1.029865 158 124 111
-1.523122 -1.224869 -0.591865 80 55 69
-1.589386 -2.723818 -0.211471 151 101 79
-1.528029 -1.320563 -0.561495 111 74 66
-1.578061 -2.396509 -0.273383 138 84 67
-1.377227 3.544935 -1.412234 149 114 104
-1.557847 -1.825815 -0.375290 211 166 152
-1.491451 0.348845 -0.752509 82 48 32
-1.425659 2.626636 -1.127285 203 138 117
-1.425659 2.626636 -1.127285 203 138 117
-1.506128 -0.285670 -0.656845 152 107 94
-1.440950 1.359141 -1.026439 112 76 66
-1.382967 3.268553 -1.351845 158 120 108
-1.486776 0.487278 -0.756138 64 42 36
-1.422479 2.577248 -1.124044 47 18 13
-1.581472 -2.854420 -0.180942 128 74 63
-1.429836 1.593792 -1.043013 88 58 53
-1.429836 1.593792 -1.043013 88 58 53
-1.503434 -1.047619 -0.617085 181 139 126
-1.074099 3.602064 -3.090232 159 129 112
-1.509314 -0.515301 -0.572287 140 87 66
-1.410049 2.662861 -1.143405 171 138 122
-1.586355 -3.056097 -0.125755 113 67 59
-1.490674 -0.101641 -0.666923 73 36 22
-1.502956 -0.562371 -0.587896 155 104 78
-1.428746 1.352622 -1.012434 154 121 106
-1.500759 -1.161861 -0.592640 180 137 122
-0.130845 1.030667 -8.511293 171 128 113
-1.406412 2.644809 -1.125877 67 15 9
-1.501539 -0.743926 -0.567051 39 18 16
-1.496004 -1.199477 -0.592021 122 76 68
-1.342797 3.649839 -1.474032 27 21 22
-1.342797 3.649839 -1.474032 27 21 22
-1.408373 2.446314 -1.083289 86 50 40
-1.387475 3.061237 -1.197600 195 152 133
-1.529361 -1.838476 -0.363625 224 173 157
-1.550622 -2.622293 -0.239114 168 116 104
-1.550622 -2.622293 -0.239114 168 116 104
-1.552600 -2.666784 -0.219181 171 119 107
-1.493306 -0.387467 -0.562219 157 108 82
-1.411307 1.491604 -1.035278 96 59 51
-1.415769 2.187776 -1.008933 83 53 42
-1.415769 2.187776 -1.008933 83 53 42
-1.462502 0.455262 -0.724944 78 51 41
-1.483124 -0.667954 -0.596979 38 24 18
-1.416010 2.027597 -0.984017 60 36 36
-1.479012 -0.971352 -0.609837 197 149 131
-1.348957 3.296542 -1.344421 98 65 56
-1.455738 0.225690 -0.715016 35 24 20
-1.384838 2.665958 -1.125950 176 140 124
-1.384838 2.665958 -1.125950 176 140 124
-1.470716 -1.018580 -0.596122 107 65 58
-1.048222 3.608675 -3.074433 140 111 90
-0.928460 1.895776 -3.765166 180 137 122
-1.389991 2.198064 -1.032247 183 142 127
-1.454927 -0.201468 -0.632192 52 33 25
-1.454927 -0.201468 -0.632192 52 33 25
-1.400571 0.964413 -0.928260 115 76 68
-1.461769 -1.164605 -0.565156 119 84 71
-1.463476 -1.209862 -0.553965 170 134 124
-1.532583 -3.010646 -0.138705 209 158 142
-1.363123 2.689786 -1.127606 83 49 36
-1.330083 3.268809 -1.322952 152 118 105
-0.929380 1.577535 -3.678905 109 83 77
-1.375339 1.458522 -0.994453 152 117 103
-1.438219 -0.301548 -0.618461 204 158 140
-1.365368 1.590930 -1.034289 114 70 57
-1.397753 1.891588 -0.828140 40 22 15
-1.361011 2.295712 -1.045203 82 53 38
-1.361011 2.295712 -1.045203 82 53 38
-1.500847 -2.658235 -0.208268 170 118 101
-1.500700 -2.618536 -0.205915 163 111 95
-1.444855 -1.313394 -0.523172 122 80 68
-0.939951 0.612693 -3.532315 93 53 48
-1.434538 -1.218138 -0.562500 90 62 68
-1.488015 -2.386126 -0.235813 141 87 64
-1.428577 -1.034957 -0.580058 184 138 121
-1.359956 1.385308 -0.980384 156 119 105
-1.353637 1.628927 -1.011904 162 124 112
-1.438581 -1.603609 -0.494134 185 140 126
-1.484331 -2.578334 -0.209822 146 93 72
-1.402016 0.552218 -0.668584 197 150 136
-1.402016 0.552218 -0.668584 197 150 136
-1.485843 -2.836522 -0.156719 138 84 61
-1.350209 1.424542 -0.974827 96 61 48
-1.350209 1.424542 -0.974827 96 61 48
-1.347264 1.461364 -0.989887 118 79 65
-1.418435 -0.911854 -0.548736 95 57 53
-1.413678 -0.241063 -0.574228 56 30 30
-1.425618 -0.508177 -0.498089 134 82 66
-1.485680 -2.906460 -0.133716 152 102 80
-0.926715 0.621957 -3.521867 206 162 149
-0.926715 0.621957 -3.521867 206 162 149
-1.431448 -0.554639 -0.455254 139 87 71
-1.468702 -2.568236 -0.226866 144 93 73
-1.361801 0.822314 -0.869409 122 80 73
-1.406977 -0.983876 -0.562608 129 86 77
-1.409430 -0.351331 -0.545921 146 94 81
-1.353103 0.861074 -0.883933 127 84 75
-1.408686 -1.170655 -0.538442 184 140 127
-1.400569 0.234858 -0.584487 174 139 119
-1.439586 -1.794284 -0.322007 176 133 118
-1.420437 -0.715492 -0.434835 84 65 60
-1.406130 -1.212319 -0.518125 74 56 73
-1.406130 -1.212319 -0.518125 74 56 73
-1.406989 -0.526036 -0.490582 199 156 137
-1.062896 3.632425 -2.581748 67 60 51
-1.062896 3.632425 -2.581748 67 60 51
-1.391148 -0.567298 -0.510904 173 127 109
-1.389101 -1.112765 -0.524499 109 74 61
-1.389101 -1.112765 -0.524499 109 74 61
-1.370786 -0.295328 -0.616176 212 168 151
-1.387916 -1.176216 -0.501117 112 77 74
-1.369945 -1.143019 -0.516121 175 132 117
-1.364438 -1.052858 -0.517825 123 84 70
-1.364438 -1.052858 -0.517825 123 84 70
-1.411162 -3.041094 -0.223973 75 53 65
-1.411162 -3.041094 -0.223973 75 53 65
-1.310829 0.827266 -0.849645 121 85 75
-1.360291 -0.974046 -0.530120 178 129 113
-1.373900 -0.664670 -0.422594 33 22 18
-1.357921 -0.894353 -0.520956 169 133 123
-1.366932 -1.503960 -0.453906 146 101 88
-1.301671 1.843218 -0.841300 42 26 20
-1.352543 -1.163914 -0.500008 77 53 61
-1.352543 -1.163914 -0.500008 77 53 61
-1.353824 -1.218436 -0.488226 169 131 119
-1.256901 2.877052 -1.092189 184 143 128
-1.345518 -1.080922 -0.514742 176 134 121
-1.291921 0.849527 -0.838352 163 126 112
-1.336918 -1.072643 -0.550370 176 134 121
-1.378698 -1.796855 -0.275725 193 150 133
-1.378207 -1.806438 -0.276648 209 166 149
-1.335279 -0.974637 -0.548840 158 106 93
-1.313487 0.243172 -0.665620 37 25 21
-1.313380 0.048269 -0.627706 51 32 25
-1.329580 -0.691284 -0.508089 77 61 54
-1.323845 -0.291135 -0.543216 199 152 138
-1.331318 -1.279677 -0.484252 117 78 70
-1.261786 2.010691 -0.916312 181 140 125
-1.322461 -0.937751 -0.518321 189 143 126
-1.323448 -0.992331 -0.509273 189 149 130
-1.323448 -0.992331 -0.509273 189 149 130
-1.381604 -2.634619 -0.133900 202 156 139
-1.258646 1.345051 -0.911238 139 109 98
-1.356094 -1.815503 -0.279465 162 109 89
-1.320259 -1.091716 -0.493743 88 57 58
-1.320259 -1.091716 -0.493743 88 57 58
-1.321421 -1.331839 -0.457471 142 96 85
-1.314354 -1.302740 -0.448542 202 159 140
-1.254859 0.854323 -0.813063 166 127 118
-1.301472 -0.995002 -0.497717 168 141 131
-1.234712 1.781237 -0.910243 45 34 44
-1.234712 1.781237 -0.910243 45 34 44
-1.245834 0.873255 -0.820179 123 84 76
-1.291119 -0.971546 -0.501350 94 67 71
-1.291119 -0.971546 -0.501350 94 67 71
-1.244332 0.833105 -0.803480 128 88 83
-1.306693 -0.496012 -0.393858 118 69 53
-1.260470 0.559498 -0.660368 150 104 96
-1.290148 -0.343625 -0.462000 150 100 82
-1.277411 -0.932520 -0.491893 99 68 67
-1.277411 -0.932520 -0.491893 99 68 67
-1.269128 -0.876754 -0.499227 158 123 120
-1.258619 -0.055693 -0.535206 195 152 133
-1.195429 1.762002 -0.932598 54 41 57
-1.260305 -0.306445 -0.487395 144 95 85
-1.260305 -0.306445 -0.487395 144 95 85
-1.253139 -0.966411 -0.468337 176 139 125
-1.261793 -1.471139 -0.393778 184 145 131
-1.244147 -0.901439 -0.494468 90 61 64
-1.277452 -1.819820 -0.175500 160 108 92
-1.271647 -2.410606 -0.091210 155 105 85
-1.274535 -2.563397 -0.057672 141 92 78
-1.111695 3.201916 -1.167358 38 28 45
-1.111695 3.201916 -1.167358 38 28 45
-1.149965 1.702528 -0.881878 54 44 61
-1.221592 -1.474159 -0.361728 145 100 87
-1.206878 -0.882688 -0.457326 94 84 97
-1.160498 0.877498 -0.772432 108 70 68
-1.245524 -2.553605 -0.065082 202 155 141
-1.070008 3.518543 -1.263937 25 19 20
-1.078066 3.239567 -1.167817 134 101 92
-1.135566 0.854530 -0.755601 169 127 115
-1.119922 1.523406 -0.852292 157 120 106
-1.232752 -3.068365 -0.011987 54 41 55
-1.177628 -1.451270 -0.344871 135 86 70
-1.115269 0.882044 -0.713675 106 69 65
-1.115269 0.882044 -0.713675 106 69 65
-1.072799 2.407604 -1.006637 151 116 102
-1.046205 3.264905 -1.162427 77 52 48
-1.136060 -0.957864 -0.410800 113 68 54
-1.133694 -0.829825 -0.423959 91 70 85
-1.043490 2.819119 -1.072327 76 48 47
-1.093746 0.661053 -0.699878 43 30 44
-1.186464 -3.092017 -0.018705 85 59 73
-1.026834 3.298564 -1.151231 140 108 97
-1.069365 1.531594 -0.826467 78 53 49
-1.047117 2.380241 -0.971514 75 49 43
-1.063971 1.588546 -0.833734 146 112 96
-1.042185 2.377105 -0.992898 75 49 43
-1.131948 -1.569197 -0.290136 137 93 80
-1.131948 -1.569197 -0.290136 137 93 80
-1.041535 2.156993 -0.943277 76 49 45
-1.041535 2.156993 -0.943277 76 49 45
-1.055869 1.451390 -0.803795 68 43 41
-1.119322 -1.441548 -0.327512 132 86 79
-1.114719 -1.650701 -0.262854 128 106 111
-1.059787 0.624732 -0.654486 180 138 126
-1.059787 0.624732 -0.654486 180 138 126
-1.019315 1.942064 -0.893307 77 50 46
-1.019315 1.942064 -0.893307 77 50 46
-1.082625 -0.943176 -0.381653 128 86 73
-1.019517 1.722035 -0.842284 72 47 45
-1.087381 -1.676317 -0.249535 61 37 45
-1.057034 -0.911154 -0.370762 144 101 84
-1.051103 -0.952206 -0.354692 149 102 88
-1.051103 -0.952206 -0.354692 149 102 88
-0.993242 1.244505 -0.764482 32 26 31
-1.002808 0.630628 -0.665858 62 46 63
-1.011029 -0.452252 -0.426197 153 108 94
-0.952937 2.169393 -0.865531 57 39 38
-0.943769 2.165101 -0.907595 57 39 38
-0.932248 1.505220 -0.924016 66 50 44
-0.953141 0.616636 -0.737999 58 46 68
-0.956146 0.651467 -0.658565 40 37 59
-0.924428 1.987170 -0.831105 117 88 74
-0.922070 1.709746 -0.778858 106 80 74
-0.876992 2.806199 -1.144753 50 35 33
-0.898239 1.462853 -0.844628 31 25 20
-0.831381 1.162522 -1.072326 83 75 98
-0.827698 1.116626 -1.089737 74 69 96
-0.794284 1.352863 -1.013743 62 72 82
-0.783559 1.275356 -1.006505 72 91 98
-0.773687 1.090557 -1.064715 26 27 47
-0.834774 -0.299924 -0.355410 85 56 49
-0.887261 -2.945106 0.136502 115 76 62
-0.833546 -0.396737 -0.331717 104 72 66
-0.833546 -0.396737 -0.331717 104 72 66
-0.831162 -0.225442 -0.345173 103 69 63
-0.759423 1.650207 -0.945230 84 74 104
-0.830249 -0.686242 -0.294234 95 65 60
-0.835420 -0.873002 -0.241255 120 80 68
-0.813387 -0.340821 -0.335406 82 58 60
-0.864335 -2.805607 0.144000 105 69 61
-0.809793 -0.418060 -0.320600 145 154 157
-0.807961 -0.268757 -0.335900 120 123 128
-0.809311 -0.417688 -0.323111 145 154 157
-0.809241 -0.535123 -0.301601 131 143 143
-0.812225 -0.709031 -0.268814 129 129 135
-0.812225 -0.709031 -0.268814 129 129 135
-0.808483 -0.561170 -0.293545 134 131 133
-0.811045 -0.803816 -0.256232 102 93 90
-0.801864 -0.367194 -0.340190 139 149 149
-0.807762 -0.678960 -0.281180 148 163 166
-0.807762 -0.678960 -0.281180 148 163 166
-0.800268 -0.242759 -0.350273 126 134 134
-0.800268 -0.242759 -0.350273 126 134 134
-0.806640 -0.852417 -0.233823 138 133 135
-0.806640 -0.852417 -0.233823 138 133 135
-0.679467 3.323859 -1.416732 90 76 100
-0.796281 -0.440967 -0.295291 99 76 81
-0.789256 -0.221647 -0.348751 57 46 49
-0.789256 -0.221647 -0.348751 57 46 49
-0.733608 0.666305 -0.858569 97 80 84
-0.791271 -0.548101 -0.300559 67 74 83
-0.791271 -0.548101 -0.300559 67 74 83
-0.793223 -0.685137 -0.282319 72 84 88
-0.825284 -2.596214 0.065467 127 118 121
-0.788606 -0.693273 -0.276251 88 100 106
-0.781354 -0.289008 -0.324967 116 125 129
-0.780320 -0.315768 -0.317993 125 124 128
-0.780320 -0.315768 -0.317993 125 124 128
-0.776520 -0.392991 -0.330474 72 84 88
-0.779306 -0.416616 -0.303521 105 118 120
-0.782124 -0.684322 -0.270014 116 122 127
-0.780523 -0.799401 -0.262945 78 83 82
-0.770983 -0.229374 -0.334255 61 54 57
-0.772659 -0.496954 -0.281387 42 34 35
-0.772659 -0.496954 -0.281387 42 34 35
-0.767029 -0.360007 -0.323255 123 133 140
-0.768846 -0.539206 -0.295697 128 146 153
-0.773654 -0.782981 -0.243698 35 26 29
-0.757383 -0.387714 -0.320197 130 142 146
-0.761709 -0.698580 -0.272981 127 139 145
-0.800923 -2.787572 0.141927 71 57 69
-0.754577 -0.823172 -0.278305 135 147 147
-0.750274 -0.348292 -0.305723 48 39 42
-0.679796 0.888066 -0.951506 66 51 49
-0.682724 0.704580 -0.914802 58 46 42
-0.744849 -0.525824 -0.292129 103 118 121
-0.783060 -2.632816 0.145767 70 62 79
-0.789489 -3.070278 0.214597 164 120 107
-0.780711 -2.628448 0.132763 70 62 79
-0.660819 3.138351 -0.952825 58 37 35
-0.623368 2.598419 -1.096277 50 32 31
-0.696261 -0.681683 -0.218715 44 31 33
-0.737066 -2.921017 0.215300 78 70 80
-0.711558 -2.874316 0.213807 78 74 86
-0.680539 -1.240436 -0.072129 56 39 42
-0.665551 -0.498728 -0.203386 66 45 47
-0.704986 -2.981664 0.226779 56 46 58
-0.659744 -0.398465 -0.224243 94 68 68
-0.658997 -0.536980 -0.226159 101 105 110
-0.658997 -0.536980 -0.226159 101 105 110
-0.667856 -1.268472 -0.085388 115 117 128
-0.658580 -0.574546 -0.183167 76 50 50
-0.693153 -2.753745 0.191824 118 117 119
-0.684440 -2.670329 0.197151 81 74 81
-0.644890 -0.869497 -0.157709 119 122 127
-0.678634 -2.949548 0.258163 79 66 74
-0.635198 -0.489706 -0.202762 105 108 116
-0.630749 -0.433155 -0.215655 108 116 123
-0.622847 -0.377493 -0.231539 130 113 124
-0.663332 -2.818064 0.236185 76 72 78
-0.543032 0.801021 -1.081593 139 107 96
-0.544963 0.623712 -1.057651 132 104 93
-0.544963 0.623712 -1.057651 132 104 93
-0.618602 -0.370651 -0.228963 130 115 123
-0.429229 3.438003 -2.310901 77 69 62
-0.661737 -2.959045 0.269769 133 123 129
-0.607294 -0.805670 -0.281402 57 50 57
-0.649297 -2.733812 0.228630 74 69 84
-0.610300 -0.495979 -0.199364 64 64 76
-0.648530 -2.760086 0.238911 128 127 131
-0.647956 -2.925839 0.269688 131 126 135
-0.647956 -2.925839 0.269688 131 126 135
-0.607689 -0.885300 -0.128056 122 141 144
-0.600494 -0.432711 -0.189792 130 140 140
-0.602985 -0.851424 -0.155470 111 110 112
-0.598691 -0.464471 -0.194542 123 134 138
-0.600540 -0.867906 -0.134074 65 70 79
-0.629417 -2.968853 0.288325 126 120 125
-0.627050 -2.922903 0.273228 124 117 122
-0.586130 -0.515634 -0.163945 96 109 107
-0.455474 1.013675 -1.598921 83 69 80
-0.574322 -0.542364 -0.200558 132 140 139
-0.574773 -0.472063 -0.175431 129 140 144
-0.581365 -1.260969 -0.046365 138 99 121
-0.580006 -1.215981 -0.052522 59 33 33
-0.571331 -0.850745 -0.134189 107 109 110
-0.564978 -0.523350 -0.204260 43 46 54
-0.603094 -2.838129 0.274416 77 73 85
-0.485564 0.603703 -1.095083 47 34 36
-0.485564 0.603703 -1.095083 47 34 36
-0.589954 -2.922363 0.306123 130 125 134
-0.589954 -2.922363 0.306123 130 125 134
-0.434993 0.995175 -1.507871 37 25 21
-0.548634 -0.502321 -0.156626 34 30 41
-0.563547 -1.552114 0.037716 71 43 42
-0.553609 -1.145321 -0.077356 136 100 122
-0.494273 3.106203 -0.783659 60 42 41
-0.538811 -0.672658 -0.191685 38 34 53
-0.556158 -1.529354 0.046409 115 99 106
-0.531307 -0.404637 -0.195535 63 60 76
-0.473726 3.482560 -0.847440 127 98 91
-0.537838 -0.979772 -0.057493 131 101 96
-0.452601 0.609585 -1.091001 124 99 89
-0.452601 0.609585 -1.091001 124 99 89
-0.476181 2.920316 -0.750533 123 93 82
-0.531537 -1.256760 -0.035031 64 41 55
-0.476792 2.478082 -0.659361 115 89 77
-0.515030 -0.490318 -0.187871 107 113 124
-0.525758 -1.218474 -0.040238 60 62 80
-0.435931 0.696465 -1.126992 141 117 117
-0.522488 -0.991674 -0.039063 106 71 58
-0.546544 -2.640057 0.270096 77 68 78
-0.468401 2.647092 -0.685775 117 91 84
-0.519776 -1.237260 -0.038246 122 128 133
-0.545958 -2.765632 0.294201 77 77 91
-0.504213 -0.465619 -0.178793 95 108 116
-0.517476 -1.604737 0.020948 135 104 119
-0.394950 1.011466 -1.444610 86 77 90
-0.509082 -1.279145 -0.014258 127 129 137
-0.492162 -0.461817 -0.170823 122 133 141
-0.501876 -1.178684 -0.037518 139 156 159
-0.499536 -0.882267 -0.042322 63 54 51
-0.526595 -2.868604 0.321887 69 61 68
-0.497299 -1.381645 -0.034019 152 107 133
-0.441455 2.945189 -0.738238 62 41 39
-0.497521 -1.267801 -0.016985 96 93 95
-0.484334 -0.489953 -0.177904 61 67 78
-0.496950 -1.267265 -0.010003 93 87 92
-0.499235 -1.566060 0.027661 59 40 55
-0.499235 -1.566060 0.027661 59 40 55
-0.493649 -1.227015 -0.017101 60 59 69
-0.443444 2.506495 -0.644363 61 40 38
-0.478086 -0.441386 -0.174012 80 88 101
-0.378271 0.973849 -1.451278 99 85 103
-0.431227 3.103002 -0.759812 59 41 40
-0.399309 0.606771 -1.148962 126 98 91
-0.489965 -1.508435 0.040196 125 95 108
-0.483625 -0.969431 -0.025308 148 110 98
-0.431203 2.665583 -0.678645 55 39 33
-0.507927 -2.702190 0.312092 131 124 129
-0.481637 -0.954032 -0.016616 133 94 80
-0.472972 -1.071212 -0.114741 70 50 45
-0.483515 -1.320920 0.032611 83 82 91
-0.482645 -1.590990 0.023349 44 26 39
-0.480946 -1.264948 0.004863 138 144 149
-0.474816 -0.902287 -0.028416 53 55 55
-0.474816 -0.902287 -0.028416 53 55 55
-0.371145 1.012822 -1.342249 82 77 86
-0.371145 1.012822 -1.342249 82 77 86
-0.461353 -0.464552 -0.164203 134 147 155
-0.460743 -0.429297 -0.170894 136 148 152
-0.473347 -1.244571 0.005064 84 70 74
-0.472135 -1.322450 0.001738 44 36 46
-0.472241 -0.939579 0.011617 152 121 106
-0.363147 0.991637 -1.414277 51 36 34
-0.495390 -2.757482 0.318888 144 136 137
-0.383401 0.673034 -1.110961 87 63 57
-0.383401 0.673034 -1.110961 87 63 57
-0.455360 -0.510158 -0.147408 94 107 109
-0.377106 0.824712 -1.151811 70 54 55
-0.377106 0.824712 -1.151811 70 54 55
-0.407047 2.921431 -0.734465 123 92 77
-0.463553 -1.517049 0.037099 48 20 33
-0.448528 -0.541328 -0.149165 130 132 133
-0.481695 -2.593105 0.308766 72 60 78
-0.459410 -1.353307 0.021887 117 94 98
-0.456854 -0.976395 0.001872 123 83 71
-0.456854 -0.976395 0.001872 123 83 71
-0.444261 -0.433557 -0.162769 88 95 104
-0.478160 -2.774962 0.334466 74 57 70
-0.446766 -1.184141 -0.014257 56 37 40
-0.476929 -3.031168 0.394304 180 135 122
-0.447967 -1.398999 0.076514 84 47 51
-0.429145 -0.472768 -0.151912 129 139 146
-0.355538 0.746054 -1.149303 92 70 65
-0.442475 -1.556599 0.045287 81 47 71
-0.427407 -0.507887 -0.152915 63 69 74
-0.291106 3.382097 -1.939456 29 23 18
-0.435251 -1.622599 0.031656 148 118 129
-0.431898 -1.301515 0.021963 88 71 75
-0.418143 -1.408881 0.056071 164 130 124
-0.415574 -1.591439 0.043577 77 47 66
-0.412568 -1.546248 0.042794 216 175 160
-0.436215 -2.924336 0.382321 129 122 127
-0.398370 -0.432372 -0.148693 145 158 160
-0.398628 -0.458396 -0.143712 124 127 131
-0.410354 -1.307141 0.027206 154 143 146
-0.409526 -0.953566 0.028933 116 128 132
-0.395057 -0.534878 -0.162149 131 132 136
-0.395057 -0.534878 -0.162149 131 132 136
-0.403711 -0.991756 0.037718 95 61 48
-0.427996 -2.965873 0.423705 80 71 84
-0.393117 -1.230451 0.013128 219 176 157
-0.381464 -0.448053 -0.141957 63 69 74
-0.391008 -0.960598 0.019365 93 75 76
-0.389020 -0.939881 0.021481 81 75 76
-0.391263 -1.582261 0.066586 116 74 92
-0.385433 -1.458301 0.043928 196 159 145
-0.381520 -0.867135 0.014460 92 101 105
-0.380093 -1.395106 0.065621 184 139 125
-0.374995 -0.904722 -0.003814 71 60 63
-0.367019 -0.927746 0.017853 175 149 142
-0.367019 -0.927746 0.017853 175 149 142
-0.363715 -1.168019 -0.012648 206 166 147
-0.363715 -1.168019 -0.012648 206 166 147
-0.367751 -1.299986 0.050843 112 95 98
-0.367814 -1.564617 0.082329 109 68 53
-0.349063 -0.425825 -0.110051 122 133 137
-0.349063 -0.425825 -0.110051 122 133 137
-0.357829 -1.374402 0.044380 156 111 98
-0.354618 -1.069023 0.020135 157 123 110
-0.355288 -0.957113 0.041755 83 60 58
-0.354833 -1.125067 0.064998 120 128 128
-0.341938 -0.476214 -0.121883 117 126 135
-0.350336 -1.098226 0.055847 76 60 67
-0.265218 0.596905 -1.182721 119 92 82
-0.331693 -0.390067 -0.127846 73 62 78
-0.342026 -0.894480 0.030798 52 51 60
-0.335966 -0.848705 0.026413 122 128 133
-0.340400 -1.498124 0.096111 162 126 118
-0.327356 -0.430640 -0.098867 60 65 74
-0.327356 -0.430640 -0.098867 60 65 74
-0.340092 -1.566692 0.097550 191 152 138
-0.333067 -1.018960 0.079865 118 75 60
-0.333724 -1.089156 0.091481 96 71 69
-0.319098 -0.487310 -0.105738 33 33 39
-0.319098 -0.487310 -0.105738 33 33 39
-0.327465 -0.869468 0.033998 41 44 48
-0.327465 -0.869468 0.033998 41 44 48
-0.319558 -0.914199 0.039594 62 59 68
-0.323075 -1.409114 0.122231 60 34 28
-0.320289 -1.106645 0.110856 140 135 136
-0.307559 -0.417932 -0.068927 124 140 146
-0.307559 -0.417932 -0.068927 124 140 146
-0.318441 -1.313071 0.113339 100 67 58
-0.316176 -1.143238 0.101484 58 47 55
-0.311408 -0.845026 0.040592 56 44 44
-0.315909 -1.216674 0.127335 102 59 50
-0.315909 -1.216674 0.127335 102 59 50
-0.308007 -0.831841 0.044987 65 52 60
-0.232539 0.621913 -1.156061 54 42 40
-0.296602 -0.514555 -0.119229 112 117 118
-0.300649 -0.392888 -0.056218 73 70 85
-0.227219 0.581328 -1.186632 39 28 30
-0.304168 -1.458554 0.066939 197 158 143
-0.308070 -1.346437 0.179421 147 116 107
-0.303871 -1.274701 0.139572 150 115 102
-0.303871 -1.274701 0.139572 150 115 102
-0.298426 -0.984734 0.068133 71 73 83
-0.299870 -1.126513 0.109859 135 133 139
-0.291634 -1.494822 0.064550 113 67 59
-0.296540 -1.364580 0.167958 71 42 38
-0.291982 -1.080018 0.115238 92 44 38
-0.290621 -1.533769 0.097486 202 165 145
-0.290010 -1.162991 0.127564 170 136 120
-0.287035 -0.940200 0.091133 58 56 62
-0.275221 -0.869582 0.068777 115 124 133
-0.280852 -1.270370 0.162450 97 57 45
-0.280025 -1.322559 0.157291 156 126 109
-0.275373 -0.951223 0.092578 69 70 74
-0.271968 -1.511371 0.109906 187 143 130
-0.269276 -0.971311 0.086142 131 146 149
-0.262916 -1.478119 0.079899 196 160 142
-0.257659 -0.814358 -0.005717 68 61 66
-0.160466 0.980229 -1.640377 37 36 52
-0.262859 -1.156715 0.148633 93 51 38
-0.256399 -1.056550 0.146284 170 127 112
-0.251619 -1.005551 0.134246 89 50 41
-0.232582 -0.636183 -0.028967 43 39 58
-0.232582 -0.636183 -0.028967 43 39 58
-0.237834 -0.861367 0.086007 129 137 144
-0.240932 -1.373104 0.187163 59 38 37
-0.237785 -0.935041 0.135971 100 66 60
-0.238479 -1.339323 0.187908 145 115 104
-0.215346 -0.739391 -0.136479 122 116 117
-0.226036 -0.884766 0.105882 56 53 69
-0.229696 -1.213266 0.184083 92 50 38
-0.219927 -0.345517 0.034311 70 62 69
-0.223250 -0.911583 0.112899 106 112 117
-0.126353 1.267624 -1.519021 20 23 28
-0.123237 1.214211 -1.541767 28 34 41
-0.214051 -1.034575 0.149687 65 49 50
-0.210641 -0.855274 0.100046 119 125 136
-0.116786 1.005951 -1.623135 84 81 103
-0.209931 -1.443781 0.124390 116 91 101
-0.209446 -1.344017 0.218772 56 34 29
-0.205765 -1.109293 0.147718 79 83 84
-0.205765 -1.109293 0.147718 79 83 84
-0.202789 -0.976258 0.136585 65 41 41
-0.201417 -1.095609 0.161728 50 44 49
-0.202308 -1.011512 0.174353 112 114 115
-0.106961 1.232960 -1.571552 76 92 99
-0.102744 1.051746 -1.636887 104 93 119
-0.191149 -0.404054 0.060696 46 42 53
-0.192312 -1.137925 0.114820 128 120 121
-0.187118 -0.937554 0.112156 129 136 145
-0.180954 -0.107379 0.029281 67 33 40
-0.184131 -0.161522 0.110425 165 130 120
-0.182957 -1.115157 0.138185 38 34 39
-0.174067 -0.080773 0.027953 198 157 142
-0.174067 -0.080773 0.027953 198 157 142
-0.165420 -0.759626 -0.120538 61 50 66
-0.165420 -0.759626 -0.120538 61 50 66
-0.177237 -1.138609 0.163037 123 125 126
-0.171313 0.093514 0.051494 145 103 98
-0.171584 0.155510 0.053722 198 149 135
-0.167878 0.230240 0.019589 192 145 131
-0.172552 -1.170788 0.202147 87 63 63
-0.174754 -1.574410 0.256387 65 39 52
-0.157025 -0.726402 -0.095752 113 103 115
-0.167829 -0.177605 0.144952 93 49 42
-0.167829 -0.177605 0.144952 93 49 42
-0.166491 -1.318055 0.196290 43 33 33
-0.157523 -0.441872 0.089470 69 67 73
0.039750 3.444938 -3.851734 44 31 33
-0.155092 -1.370074 0.193470 91 95 100
-0.069068 1.419506 -1.566053 88 107 114
-0.067522 1.230187 -1.580433 82 92 99
-0.148129 -0.905134 0.117204 58 54 66
-0.142615 -0.160248 0.159004 196 158 140
-0.143242 -1.392916 0.192742 34 26 33
-0.133076 0.359738 0.074622 213 170 155
-0.135424 -1.032407 0.173054 42 40 46
-0.134886 -0.201250 0.173182 45 29 23
-0.134886 -0.201250 0.173182 45 29 23
-0.131051 -0.981033 0.117640 136 142 147
-0.132403 -1.420958 0.196801 122 93 109
-0.132403 -1.420958 0.196801 122 93 109
-0.128489 -0.472222 0.114605 81 78 87
-0.050542 1.422718 -1.546927 95 117 123
-0.128429 -0.106216 0.129508 205 161 144
-0.129677 -1.477948 0.161793 146 110 127
-0.146859 -3.048816 0.582114 95 65 78
-0.145269 -3.037851 0.547990 95 64 79
-0.124243 -1.023399 0.175425 48 44 50
-0.124243 -1.023399 0.175425 48 44 50
-0.049177 0.886869 -1.441297 135 122 144
-0.122146 -1.057186 0.183656 129 149 150
-0.120042 0.057097 0.148833 215 168 147
-0.120945 -1.087548 0.210270 83 86 101
-0.116900 -0.958139 0.148811 131 133 133
-0.038968 1.307973 -1.546623 27 29 39
-0.114780 -0.939852 0.164310 77 64 66
-0.036390 1.367161 -1.539123 82 100 107
-0.113736 -1.378242 0.207837 119 131 133
-0.111522 -0.342003 0.222802 164 129 116
-0.030899 1.288531 -1.550655 79 94 97
-0.108925 -1.273242 0.208717 40 38 50
-0.108925 -1.273242 0.208717 40 38 50
-0.030144 1.207510 -1.536575 34 41 50
-0.106378 -1.128193 0.221509 136 137 147
-0.105032 -1.096721 0.212613 129 133 144
-0.103197 -0.976104 0.174470 87 79 89
-0.014574 3.198843 -1.802589 85 98 106
-0.103500 -1.400229 0.224401 54 38 49
-0.097616 -0.622416 0.209313 56 50 67
-0.094093 -0.516347 0.132679 61 55 60
-0.096133 -0.857823 0.181989 62 63 77
-0.018977 1.422924 -1.551052 101 118 121
-0.091278 -0.879142 0.173438 62 62 76
-0.091441 -0.904814 0.184780 116 112 118
-0.090074 -0.948873 0.178553 180 142 130
-0.090284 -0.172278 0.198284 46 30 23
-0.014004 1.260764 -1.528436 23 28 37
-0.085157 0.106723 0.124948 47 24 22
-0.086679 0.187549 0.166187 48 25 23
-0.086679 0.187549 0.166187 48 25 23
-0.105006 -2.974319 0.608808 89 62 72
-0.105006 -2.974319 0.608808 89 62 72
-0.083426 0.248653 0.129577 59 24 20
-0.079292 0.381685 0.103522 67 22 18
-0.083729 -0.288940 0.220728 190 147 130
-0.083660 -1.400873 0.239618 109 107 113
-0.079747 -1.377485 0.229514 113 116 124
-0.078116 -1.356480 0.213249 110 116 123
-0.076585 -1.302992 0.212923 137 153 159
-0.072432 -0.022322 0.151254 129 87 80
-0.072033 -0.882721 0.194225 135 140 149
-0.074032 -1.087093 0.237985 130 134 145
-0.072722 -1.500427 0.241314 150 116 127
-0.067871 -1.354627 0.247043 72 76 81
-0.064816 -1.174926 0.248414 92 85 98
-0.059775 0.214845 0.153353 204 161 144
-0.059775 0.214845 0.153353 204 161 144
-0.056188 0.354662 0.122656 208 165 148
-0.056188 0.354662 0.122656 208 165 148
-0.060126 -1.460978 0.290634 37 22 30
-0.052645 -0.936757 0.210546 180 147 131
-0.054374 -1.347667 0.248224 151 162 166
-0.047243 -0.583414 0.173229 52 39 41
-0.048402 -1.081868 0.244729 92 73 98
-0.062054 -2.489068 0.627990 194 148 131
-0.062054 -2.489068 0.627990 194 148 131
0.025606 1.419064 -1.581159 81 95 101
-0.045729 -1.131455 0.256304 94 80 86
-0.040452 -0.763992 0.144751 80 61 54
-0.040452 -0.763992 0.144751 80 61 54
-0.039670 -0.836698 0.199229 108 119 123
-0.040906 -1.261648 0.281971 147 144 146
-0.033409 0.318554 0.127929 61 20 18
-0.033409 0.318554 0.127929 61 20 18
-0.033516 0.378320 0.141555 63 25 20
-0.032638 0.240858 0.141322 59 25 19
-0.035345 -0.279865 0.266834 45 29 23
0.036223 1.370385 -1.469344 71 81 88
-0.023935 0.201651 0.173184 199 158 143
-0.022586 -1.042480 0.242774 97 73 103
0.056035 3.097246 -1.787275 112 108 119
0.098972 3.469576 -2.927763 75 56 51
0.098972 3.469576 -2.927763 75 56 51
-0.015689 -1.234416 0.261079 167 174 177
0.049239 1.214032 -1.492636 34 43 52
0.052149 1.299785 -1.507798 79 85 90
0.052149 1.299785 -1.507798 79 85 90
-0.009895 -0.093472 0.194811 145 104 95
-0.007631 0.114679 0.204127 42 29 21
0.053806 1.384855 -1.472556 74 80 87
-0.009236 -1.309486 0.292169 90 71 74
-0.006791 -1.284154 0.289837 162 154 155
-0.007256 -0.284560 0.308126 51 29 23
0.056641 1.277202 -1.447576 22 22 28
0.071753 3.069240 -1.794353 27 24 39
0.000192 -0.249209 0.268177 195 156 142
0.003275 -0.591775 0.193486 105 109 110
-0.009332 -1.682410 0.549876 137 86 70
-0.013490 -2.537126 0.698899 139 87 74
-0.007203 -1.677019 0.529715 137 86 70
0.006672 0.369543 0.147020 42 26 20
0.005787 -0.081611 0.209569 147 104 95
0.082085 3.146346 -1.768110 116 121 120
0.012063 -1.338560 0.286931 122 120 126
0.005536 -1.650192 0.529384 189 145 128
0.017097 -0.614019 0.213223 32 26 37
0.019747 -1.214661 0.261034 137 135 135
0.019747 -1.214661 0.261034 137 135 135
0.019853 -1.251530 0.272126 166 163 159
0.021289 -0.862830 0.250954 46 43 52
0.026150 -0.121076 0.220443 153 110 95
0.026630 -1.276571 0.309129 169 138 129
0.026630 -1.276571 0.309129 169 138 129
0.085411 1.286746 -1.461311 63 77 83
0.028541 -1.042987 0.279431 78 53 51
0.029210 -1.233634 0.268914 74 59 57
0.028244 -0.334534 0.326643 185 141 124
0.088000 1.248694 -1.454379 53 69 76
0.031808 -0.919930 0.269816 64 63 72
0.091136 1.178912 -1.487665 102 128 135
0.019818 -2.683017 0.758928 143 90 70
0.037893 -0.891238 0.265509 124 146 151
0.030692 -1.663991 0.506433 158 107 87
0.039624 -0.819771 0.244879 92 105 113
0.029384 -2.214694 0.613409 137 85 68
0.043228 -0.096872 0.209979 148 103 90
0.043779 -0.931108 0.273536 124 135 139
0.048803 -0.580235 0.205626 77 66 68
0.049348 -1.250566 0.280122 155 157 157
0.117134 3.151450 -1.785240 11 9 9
0.119666 3.200422 -1.840743 96 100 111
0.055305 -1.218761 0.298258 90 58 47
0.054886 -0.363101 0.330850 184 142 129
0.056497 -1.170439 0.299814 129 137 144
0.060145 0.113172 0.200643 209 163 145
0.059447 -0.124804 0.257761 198 157 142
0.064238 0.173026 0.225169 213 165 147
0.063716 -0.934041 0.293275 122 134 144
0.067126 0.055427 0.251464 153 104 94
0.068258 -0.055647 0.249659 112 80 75
0.067126 -0.168638 0.288821 209 164 143
0.067126 -0.168638 0.288821 209 164 143
0.116271 0.881256 -1.280720 204 161 144
0.072546 -1.298950 0.323657 71 55 62
0.074839 -0.849176 0.273106 139 151 153
0.062123 -3.103481 0.715378 116 74 61
0.078731 -0.683378 0.216180 34 32 44
0.076920 -1.528069 0.358313 155 164 168
0.141129 3.171192 -1.832178 89 100 104
0.141129 3.171192 -1.832178 89 100 104
0.082502 -1.018397 0.290299 121 128 131
0.083765 -1.001147 0.303095 41 38 47
0.085774 -0.608546 0.250913 47 40 45
0.147287 3.321982 -1.890315 78 71 84
0.087907 -0.783427 0.214888 70 55 59
0.087907 -0.783427 0.214888 70 55 59
0.089488 -0.190864 0.286093 152 107 96
0.092762 -0.912090 0.293504 130 136 141
0.096238 -0.432351 0.360384 160 126 110
0.085741 -2.558718 0.786172 158 108 86
0.100083 -1.226554 0.304592 146 138 138
0.100083 -1.226554 0.304592 146 138 138
0.100528 -1.608997 0.417229 182 144 126
0.103872 -0.987051 0.300449 114 120 125
0.105623 -0.944152 0.306864 37 28 38
0.108640 -1.413605 0.328867 130 151 152
0.108491 -1.083642 0.348137 90 63 59
0.100379 -3.218108 0.742599 132 96 86
0.110196 -1.031946 0.366675 113 125 131
0.110196 -1.031946 0.366675 113 125 131
0.099660 -2.668238 0.809684 141 89 72
0.113588 -0.008855 0.278118 127 85 78
0.113092 -1.298398 0.351986 64 54 60
0.112731 -1.626498 0.409696 175 135 123
0.101841 -2.724634 0.827151 149 99 79
0.104756 -2.415290 0.772896 146 95 79
0.104727 -2.529266 0.789922 147 95 78
0.118379 -0.184752 0.276737 199 158 143
0.118379 -0.184752 0.276737 199 158 143
0.109093 -2.069943 0.679159 151 100 80
0.123316 -0.706021 0.247000 39 30 43
0.128204 0.093082 0.309582 171 129 117
0.129356 -1.200722 0.346972 109 82 92
0.129356 -1.200722 0.346972 109 82 92
0.130177 -1.104362 0.370775 144 146 146
0.190066 3.274213 -1.850101 32 24 31
0.131010 -2.409720 0.738620 211 165 148
0.192906 3.269057 -1.873755 32 24 31
0.130259 -2.885353 0.845593 104 63 60
0.144190 -0.897857 0.304704 114 135 137
0.138051 -2.433252 0.727209 168 118 106
0.138051 -2.433252 0.727209 168 118 106
0.150406 0.035451 0.274713 218 172 155
0.148464 -1.117763 0.366727 43 42 52
0.148464 -1.117763 0.366727 43 42 52
0.150458 -0.859084 0.332274 89 73 74
0.150458 -0.859084 0.332274 89 73 74
0.150882 -1.026410 0.353081 107 114 123
0.153260 -1.578684 0.375205 159 125 119
0.156885 -1.137757 0.358987 105 111 116
0.150752 -3.244438 0.803449 44 30 32
0.165740 -0.894796 0.359266 84 76 77
0.164238 -1.371287 0.432481 43 36 41
0.167481 -0.172984 0.296584 122 85 77
0.167914 -1.065154 0.361435 46 40 51
0.167914 -1.065154 0.361435 46 40 51
0.168056 -1.177502 0.367705 117 129 131
0.167657 -1.206135 0.395950 69 67 79
0.203227 0.797613 -1.238558 111 80 77
0.170402 -1.160922 0.396945 48 38 50
0.177089 -0.869918 0.363411 166 131 117
0.180658 -0.840857 0.346829 174 133 118
0.180490 -1.304776 0.442515 101 71 66
0.186066 -0.025120 0.316215 195 157 139
0.186927 -0.218394 0.277005 202 156 139
0.189548 -1.089686 0.356786 119 129 129
0.220608 0.811241 -1.232129 201 159 140
0.222933 0.609886 -1.259274 112 81 78
0.188267 -2.430338 0.771252 168 117 101
0.195292 -1.220641 0.427336 122 131 140
0.195750 -1.200202 0.430567 121 133 139
0.198261 -0.509472 0.307900 48 42 61
0.196730 -0.427826 0.413585 165 126 112
0.200739 -0.696710 0.258876 47 36 38
0.200435 -1.286348 0.429901 147 159 161
0.193639 -2.843801 0.868968 138 87 71
0.203446 -1.455049 0.368933 36 31 40
0.203398 -1.262350 0.421521 127 136 140
0.204712 -1.305022 0.442610 131 106 102
0.199151 -2.709284 0.829573 157 107 85
0.208733 -1.495962 0.358646 51 30 33
0.210352 -1.559727 0.385867 135 95 83
0.211947 -1.189811 0.429747 52 55 60
0.212534 -1.224923 0.426454 60 65 74
0.206428 -2.523962 0.820015 159 109 87
0.219378 0.078310 0.333967 159 110 102
0.219286 0.135699 0.367362 212 166 148
0.219307 0.833211 0.803155 207 160 139
0.225995 -1.176500 0.430873 142 148 153
0.226097 -1.207298 0.441438 138 149 153
0.246057 0.836283 -0.765269 212 169 148
0.229087 -0.654935 0.313709 118 89 85
0.232453 -1.445918 0.444425 33 23 35
0.235137 -0.825459 0.389847 107 72 59
0.231283 0.709929 0.732833 216 169 148
0.241537 -1.601138 0.377045 115 73 98
0.242737 -1.537560 0.394284 204 164 146
0.238708 -2.538695 0.804417 157 107 84
0.249774 -1.423059 0.442799 92 101 105
0.251683 -0.840858 0.356557 169 127 115
0.257384 -0.885852 0.399591 84 60 60
0.258311 -0.950043 0.392537 100 106 113
0.258311 -0.950043 0.392537 100 106 113
0.258770 -1.128523 0.403252 129 125 130
0.260963 -0.731592 0.257717 131 142 146
0.258953 -1.084444 0.415674 114 128 134
0.260588 -0.693409 0.313695 47 43 48
0.264761 -1.653176 0.399634 188 156 151
0.265172 -1.099753 0.405945 113 125 129
0.266124 -0.167024 0.427166 196 147 131
0.266432 -1.470215 0.455922 106 80 93
0.268512 -0.117182 0.327519 158 110 98
0.267470 -1.157275 0.442295 49 40 50
0.269838 -1.058243 0.410282 60 56 67
0.270010 -1.606345 0.394510 174 148 142
0.271308 -0.098383 0.322144 197 156 141
0.270847 -1.019978 0.411404 112 117 126
0.272318 0.256222 0.330015 70 39 30
0.273010 0.394266 0.313287 59 33 26
0.272679 -1.637454 0.408324 191 155 147
0.272171 -1.193583 0.465882 136 139 144
0.274738 0.354585 0.323665 213 174 152
0.274600 -0.620290 0.366709 112 117 120
0.272830 -3.225774 0.857300 48 33 37
0.281996 -1.446014 0.460341 42 31 39
0.282471 -1.110789 0.433015 130 143 145
0.284809 -0.202931 0.414188 196 153 136
0.287015 0.145403 0.369684 60 37 29
0.287015 0.145403 0.369684 60 37 29
0.288186 -1.162248 0.443114 110 115 118
0.294145 -1.073701 0.438474 100 99 101
0.294690 -0.334508 0.450803 109 62 48
0.296991 -1.235532 0.488429 77 72 73
0.297611 -1.388721 0.435413 43 46 54
0.299262 -1.594114 0.412614 106 70 94
0.299262 -1.594114 0.412614 106 70 94
0.302535 -0.999808 0.421848 118 127 137
0.303199 -1.169167 0.455374 79 72 69
0.300051 -2.444332 0.826437 191 143 131
0.305175 0.382680 0.331871 186 147 132
0.310326 -1.549066 0.437699 127 81 70
0.307900 -1.812517 0.722468 210 167 148
0.310728 -1.122915 0.427545 50 42 49
0.310461 -1.525840 0.468665 189 152 132
0.313216 -0.977238 0.431001 99 103 108
0.313586 -1.154842 0.466003 131 141 141
0.316134 -0.832069 0.420231 54 47 54
0.316626 -1.084568 0.463504 56 35 38
0.317570 0.284516 0.365158 70 38 33
0.316491 -1.353101 0.483193 30 24 25
0.316873 -1.572479 0.444048 184 148 138
0.318519 0.219589 0.376742 78 37 28
0.319705 -0.146058 0.524684 46 25 24
0.319705 -0.146058 0.524684 46 25 24
0.316432 -2.842538 0.981542 133 86 72
0.326744 -0.602066 0.375054 82 90 90
0.329444 -1.181243 0.454900 106 79 58
0.340274 -1.207665 0.479450 141 160 165
0.341865 -1.525475 0.515425 88 54 60
0.346141 -1.431943 0.479381 106 110 115
0.346141 -1.431943 0.479381 106 110 115
0.343666 -3.066353 0.895000 114 67 59
0.347582 0.088131 0.409957 214 169 148
0.347698 -1.581494 0.475703 105 62 75
0.347698 -1.581494 0.475703 105 62 75
0.351512 -0.580270 0.384709 93 101 108
0.356513 -0.871417 0.429768 57 65 72
0.361609 -0.677109 0.359432 38 38 52
0.361797 -0.212662 0.470730 46 25 23
0.363280 -1.395017 0.502639 39 32 35
0.365982 0.300786 0.373682 81 36 25
0.366528 0.242350 0.405044 83 40 31
0.367214 -1.467467 0.494958 45 38 45
0.368221 -0.914181 0.448028 77 66 74
0.368221 -0.914181 0.448028 77 66 74
0.368878 0.152928 0.435339 63 36 26
0.370713 0.385793 0.343803 77 37 25
0.370713 0.385793 0.343803 77 37 25
0.372233 0.157677 0.391857 63 36 26
0.372298 -2.425650 0.846765 189 144 130
0.375334 -1.359247 0.504532 120 131 135
0.377417 0.420202 0.326922 201 165 147
0.380123 -0.874764 0.438520 97 113 120
0.381468 -1.295195 0.519529 132 128 133
0.381760 -1.100825 0.464948 73 45 38
0.381760 -1.100825 0.464948 73 45 38
0.384985 -0.243891 0.487463 188 152 136
0.384985 -0.243891 0.487463 188 152 136
0.385942 -0.277170 0.469350 51 27 21
0.386005 -1.076477 0.486545 132 105 101
0.387617 -0.122420 0.422956 42 27 24
0.390145 -1.170107 0.478403 155 155 149
0.390754 -1.257227 0.516774 80 73 78
0.392573 -3.205829 0.929050 47 26 34
0.398406 -1.393886 0.504824 103 109 116
0.398426 -0.582342 0.424503 116 103 101
0.401075 0.891020 0.730900 191 151 133
0.402306 -2.498965 0.972255 144 94 76
0.406478 -0.836252 0.471331 121 132 140
0.407877 -1.637284 0.791356 141 89 73
0.410327 -0.253839 0.506708 132 86 78
0.418883 -2.434585 0.895042 178 127 117
0.421128 0.424789 0.375191 192 159 150
0.422451 -0.235943 0.550199 169 128 113
0.427137 -1.160616 0.516159 186 140 116
0.427694 -1.247286 0.567733 154 124 113
0.432951 -0.096227 0.487260 204 163 148
0.437771 -2.358440 0.907022 195 150 136
0.438741 -1.617794 0.768111 200 155 141
0.440802 -0.464161 0.423796 94 83 99
0.446925 -1.033350 0.507352 76 46 35
0.454392 -1.015377 0.534405 113 110 112
0.456278 -2.872411 0.961583 58 39 54
0.455791 -0.856813 0.510343 113 92 95
0.456633 -1.136395 0.512477 83 76 79
0.458958 -1.234707 0.557224 171 142 128
0.460125 -0.105738 0.519194 104 58 50
0.461874 -0.767258 0.485262 43 32 40
0.463410 -0.991050 0.522661 74 46 45
0.466378 0.284605 0.449971 199 153 135
0.469326 -0.061933 0.507002 180 141 126
0.471822 -0.870188 0.492138 177 139 127
0.473389 -0.946002 0.521880 76 48 47
0.478000 -0.867734 0.550039 183 152 137
0.478888 -1.360862 0.605339 106 109 114
0.480634 -1.468143 0.574112 132 100 117
0.483793 -1.054854 0.555085 129 113 97
0.490624 -1.218642 0.557851 75 74 76
0.491561 -1.078126 0.566637 81 51 46
0.491561 -1.078126 0.566637 81 51 46
0.497186 -2.906955 0.977002 89 61 74
0.497186 -2.906955 0.977002 89 61 74
0.502583 -0.022275 0.535717 197 157 139
0.504810 -1.408259 0.595191 49 26 41
0.504810 -1.408259 0.595191 49 26 41
0.505816 -0.991957 0.578422 145 141 140
0.507384 -1.252027 0.539367 62 68 75
0.507248 -0.790164 0.515371 136 155 158
0.507922 -0.749855 0.486344 134 149 151
0.507922 -0.749855 0.486344 134 149 151
0.508397 -0.053563 0.527867 181 139 126
0.508963 -0.964567 0.569418 122 127 128
0.513198 -0.891922 0.580851 177 137 125
0.519630 -0.979827 0.575208 85 92 95
0.520227 -1.338905 0.603651 52 36 43
0.522873 -0.846045 0.545910 77 58 61
0.527208 -1.293182 0.579847 63 62 71
0.527208 -1.293182 0.579847 63 62 71
0.551169 -2.971404 1.028574 90 64 77
0.546979 -1.009564 0.587664 79 76 85
0.546979 -1.009564 0.587664 79 76 85
0.548319 -1.319280 0.605313 119 118 127
0.549634 -1.045429 0.590667 93 92 101
0.549250 -0.063217 0.506734 100 83 96
0.552198 -1.294953 0.582640 132 135 143
0.556679 -1.230122 0.574427 111 123 127
0.556922 -1.034185 0.588215 108 111 116
0.564498 -0.840268 0.566242 142 155 163
0.568969 -1.304494 0.614630 77 78 88
0.569260 -1.325294 0.603721 56 47 57
0.574543 -1.203253 0.595631 50 45 60
0.574543 -1.203253 0.595631 50 45 60
0.575197 -0.779058 0.569628 119 128 132
0.575197 -0.779058 0.569628 119 128 132
0.576339 -1.445040 0.630546 138 111 121
0.580691 -1.004671 0.605886 84 86 94
0.581507 -0.976078 0.570277 133 137 138
0.584277 -0.894401 0.568734 127 138 142
0.587477 -1.302761 0.604821 135 150 153
0.588084 -0.749363 0.572818 111 123 127
0.594539 0.496410 1.046162 44 42 62
0.596000 -1.372613 0.660639 47 32 40
0.599144 -1.504809 0.763716 65 42 56
0.600720 -1.015815 0.610609 136 151 153
0.600720 -1.015815 0.610609 136 151 153
0.609242 -1.446365 0.759147 166 128 123
0.607884 -0.831715 0.567935 45 46 56
0.608980 -1.307256 0.620941 41 32 35
0.610123 -0.999967 0.633916 45 47 48
0.612564 -1.543420 0.781063 166 132 126
0.609478 -0.900987 0.557934 131 134 138
0.609478 -0.900987 0.557934 131 134 138
0.612113 -1.226112 0.668699 61 42 39
0.618857 -0.746144 0.586448 116 139 141
0.621837 -1.187157 0.701787 139 105 92
0.621943 -1.051586 0.640728 118 124 123
0.620182 -0.256597 0.507855 61 52 62
0.716263 0.822932 6.400672 99 70 65
0.626092 -1.145651 0.692371 101 62 48
0.738746 0.394226 6.425631 142 115 101
0.638917 -0.734765 0.580716 129 148 153
0.647395 -2.557922 0.988682 128 85 70
0.643870 -1.392963 0.666106 159 122 130
0.645251 -1.113174 0.686901 148 143 144
0.645251 -1.113174 0.686901 148 143 144
0.646378 -1.017144 0.643234 101 106 109
0.646378 -1.017144 0.643234 101 106 109
0.647389 -1.054165 0.675105 110 127 130
0.651812 -1.089162 0.680143 80 69 72
0.661384 -1.129250 0.691811 92 76 77
0.661848 -0.991991 0.613328 45 45 51
0.675413 -0.832129 0.643576 131 111 106
0.677731 -0.682499 0.556497 57 44 52
0.681801 -1.327772 0.735593 57 44 36
0.678843 -0.399202 0.571637 117 122 121
0.684813 -1.035950 0.667935 111 109 109
0.689183 -0.732353 0.620350 105 115 122
0.690899 -0.998991 0.667692 86 92 99
0.699273 -0.936563 0.673190 146 114 103
0.701108 -1.013884 0.659148 86 69 72
0.709700 -0.969097 0.645929 53 46 49
0.714294 -0.370732 0.613757 40 45 48
0.716675 -0.860540 0.642770 67 79 83
0.732105 -1.381411 0.709649 148 102 94
0.702444 0.754630 -1.029666 94 72 67
0.702444 0.754630 -1.029666 94 72 67
0.748649 -1.344970 0.703730 198 155 138
0.751513 -0.933786 0.706149 75 50 46
0.751244 -0.814226 0.678794 97 110 118
0.759408 -0.896401 0.688966 140 118 113
0.759067 -1.048049 0.635070 213 170 153
0.759067 -1.048049 0.635070 213 170 153
0.766746 -1.158916 0.697107 136 104 99
0.767750 -0.787786 0.683127 56 56 68
0.771334 -1.252594 0.725064 106 70 62
0.766540 -0.623111 0.456039 117 106 109
0.781416 -1.302974 0.699132 192 154 136
0.785413 -0.352504 0.553037 85 93 100
0.792244 -1.181298 0.720557 173 135 123
0.770446 3.022582 -0.063048 61 40 38
0.773544 2.803851 -0.009416 56 40 34
0.795671 -1.066673 0.703758 211 169 156
0.790730 -0.405304 0.523817 105 105 105
0.798528 -1.131719 0.756489 86 50 50
0.798915 -1.011223 0.745464 139 139 139
0.798915 -1.011223 0.745464 139 139 139
0.746437 0.618145 -1.039733 135 107 96
0.796307 -0.971001 0.612705 97 70 73
0.746475 0.806316 -1.074367 152 123 109
0.775044 3.232969 -0.138616 63 42 44
0.800242 -0.827391 0.694732 134 125 122
0.798424 -0.937785 0.618862 213 172 150
0.749934 0.895779 -1.079627 170 137 121
0.807913 -1.202497 0.756936 173 134 120
0.824347 -3.161354 1.205033 46 32 38
0.785414 3.271641 -0.122310 128 96 83
0.826437 -2.801166 1.144882 83 73 85
0.826437 -2.801166 1.144882 83 73 85
0.819288 -0.828375 0.745075 99 66 57
0.818424 -1.061687 0.707891 91 68 76
