ply
format ascii 1.0
element vertex 1235
property float x
property float y
property float z
property uchar blue
property uchar green
property uchar red
end_header
-3.182236 1.701218 2.768993 114 99 107
-3.182236 1.701218 2.768993 114 99 107
-3.174152 0.998809 2.853185 58 47 55
-3.178907 0.592912 2.895260 53 41 47
-3.170903 1.973608 2.723327 39 31 38
-3.180828 0.643126 2.878812 135 113 131
-3.169878 0.606990 2.880721 93 61 80
-3.158885 1.210435 2.808670 114 98 116
-3.154016 1.217193 2.811022 73 53 66
-3.159586 0.606664 2.869024 91 63 83
-3.157119 0.050569 2.928626 57 42 50
-3.147146 1.089611 2.797335 130 114 131
-3.148832 0.664513 2.846877 88 69 86
-3.139546 0.858459 2.829922 59 42 56
-3.139012 0.996641 2.812963 55 38 47
-3.135630 1.609969 2.723032 117 94 102
-3.129982 1.016883 2.791136 133 112 127
-3.118525 1.965849 2.680275 58 43 47
-3.124274 0.253102 2.873589 130 103 119
-3.101005 1.675439 2.712401 41 33 33
-3.109089 1.652644 2.701354 46 37 50
-3.115688 0.664596 2.808463 90 70 89
-3.101082 1.655916 2.693065 59 47 69
-3.086871 1.485880 2.712075 125 104 112
-3.088838 1.806828 2.667314 57 42 50
-3.093426 0.705937 2.795397 124 104 117
-3.079738 2.140226 2.628747 45 38 45
-3.086453 0.599547 2.804550 67 43 55
-3.072347 0.021035 2.846444 120 101 116
-3.058586 1.925855 2.619687 113 99 123
-3.068475 0.009885 2.840223 59 49 65
-3.048669 2.077931 2.589322 52 41 44
-3.048669 2.077931 2.589322 52 41 44
-3.040930 1.215955 2.695988 128 110 123
-3.049987 0.549888 2.766126 129 102 122
-3.049192 0.856514 2.727523 135 110 124
-3.038912 1.805411 2.617366 62 50 56
-3.037381 1.018858 2.701442 45 28 37
-3.037381 1.018858 2.701442 45 28 37
-3.045082 0.401665 2.767678 118 99 120
-3.034821 0.983305 2.701376 111 91 110
-3.039278 0.249012 2.786335 128 104 116
-3.011211 1.481635 2.635748 64 45 60
-3.023805 0.312552 2.765572 76 53 61
-3.015380 1.200111 2.662220 48 40 50
-3.015380 1.200111 2.662220 48 40 50
-3.021159 0.227968 2.773525 107 81 99
-3.004209 1.344862 2.636383 116 92 102
-3.006513 1.374686 2.626027 112 94 101
-3.059859 2.348614 2.450896 36 32 31
-3.059859 2.348614 2.450896 36 32 31
-2.999144 1.453237 2.617107 101 82 91
-2.996858 1.480760 2.614436 51 36 50
-2.996858 1.480760 2.614436 51 36 50
-3.004455 0.382228 2.739868 52 38 42
-3.004455 0.382228 2.739868 52 38 42
-2.991368 1.546595 2.608558 43 39 50
-2.995993 1.198274 2.644087 45 40 55
-2.982388 1.459389 2.611425 43 31 43
-2.982388 1.459389 2.611425 43 31 43
-2.986195 1.190963 2.629612 103 99 111
-2.985035 1.071033 2.642680 45 34 50
-2.981843 1.126321 2.635475 63 46 67
-2.967995 1.198741 2.622297 52 45 50
-2.971063 0.974705 2.642944 65 51 63
-2.970309 0.216483 2.723739 61 35 51
-2.970309 0.216483 2.723739 61 35 51
-2.959466 1.673198 2.553020 92 78 89
-2.949897 0.973552 2.633093 61 48 62
-2.950835 1.729308 2.537641 107 94 102
-2.966471 0.109500 2.718055 79 64 85
-2.966471 0.109500 2.718055 79 64 85
-2.954122 0.157651 2.700918 75 57 80
-2.938862 1.117468 2.586719 60 53 74
-2.928179 1.761021 2.509856 99 76 90
-2.913728 1.757266 2.497856 41 27 33
-2.909892 0.225632 2.666690 142 118 130
-2.913579 0.767931 2.597196 80 61 82
-2.899271 0.737420 2.606227 52 42 54
-2.878289 0.820580 2.570041 59 48 64
-2.878289 0.820580 2.570041 59 48 64
-2.879012 0.331922 2.623942 58 45 53
-2.886567 0.122850 2.635015 80 63 90
-2.886567 0.122850 2.635015 80 63 90
-2.865022 0.354045 2.619298 47 36 44
-2.868210 0.976188 2.540647 52 37 45
-2.855621 1.904030 2.430561 36 28 39
-2.859410 2.025706 2.404014 39 36 52
-2.852295 1.306518 2.491009 58 51 66
-2.857362 0.963414 2.520868 114 91 106
-2.852997 0.341676 2.592408 113 94 119
-2.849611 0.882004 2.525462 56 46 59
-2.888790 2.290128 2.316999 58 44 48
-2.842846 1.427092 2.453146 90 78 98
-2.838907 0.000776 2.613254 69 51 74
-2.830816 1.548035 2.432112 33 27 38
-2.833875 0.787855 2.512959 60 47 69
-2.833875 0.787855 2.512959 60 47 69
-2.823856 1.420374 2.435475 38 31 36
-2.806012 1.641349 2.416136 28 23 25
-2.820622 0.366018 2.556310 83 65 88
-2.807779 0.351790 2.542736 48 39 59
-2.798479 0.191288 2.550645 63 50 74
-2.791918 0.747279 2.483897 120 101 122
-2.792905 0.715270 2.481128 95 79 96
-2.788692 -0.009421 2.560200 72 59 81
-2.782381 1.515204 2.379047 56 47 50
-2.787304 -0.206516 2.576556 72 50 74
-2.785319 -0.052390 2.557208 77 61 92
-2.769030 1.784396 2.349232 98 75 83
-2.782928 0.622637 2.475504 71 60 86
-2.762102 1.161738 2.406396 56 49 64
-2.756878 0.812895 2.433646 59 49 66
-2.759192 1.099656 2.394840 97 82 110
-2.754110 0.701714 2.437398 120 108 128
-2.750173 -0.039243 2.527006 69 59 65
-2.742711 -0.126170 2.521479 119 100 119
-2.740118 -0.126811 2.522678 119 100 119
-2.717186 1.653700 2.312168 112 90 92
-2.707322 0.162392 2.459744 61 45 56
-2.712215 -0.146904 2.491914 59 48 64
-2.706363 0.143994 2.459952 60 46 52
-2.699731 0.814179 2.384016 40 37 52
-2.700285 0.699920 2.395224 62 49 71
-2.686380 0.494520 2.404542 61 49 69
-2.679478 -0.227068 2.486203 45 38 45
-2.682275 0.183177 2.424340 126 102 114
-2.677486 -0.168492 2.469005 65 48 59
-2.675964 0.348394 2.405873 58 49 75
-2.675449 0.690156 2.361469 125 107 136
-2.673019 0.748327 2.356054 128 104 128
-2.660045 1.284488 2.297623 34 23 33
-2.656364 0.712175 2.349187 49 43 60
-2.653186 -0.015281 2.427433 115 104 124
-2.653057 0.750340 2.332784 35 24 34
-2.645009 -0.130807 2.435842 134 108 131
-2.642307 0.699563 2.329352 78 64 88
-2.641083 0.720320 2.327508 133 114 123
-2.641745 0.688742 2.328182 127 115 137
-2.639319 0.678216 2.328049 86 68 97
-2.639319 0.678216 2.328049 86 68 97
-3.065549 2.197322 1.821472 114 93 138
-2.632860 0.701315 2.318248 79 60 77
-2.630797 0.692231 2.313418 137 122 126
-2.631292 0.340500 2.353833 65 54 80
-2.630828 -0.155257 2.412309 57 44 60
-2.619937 0.008393 2.381730 112 93 120
-3.003799 1.717456 1.870982 104 88 135
-2.584085 -0.072851 2.365535 63 42 57
-2.573669 -0.018092 2.350609 125 108 112
-2.583272 0.108756 2.327786 78 59 92
-2.572507 0.332292 2.308367 50 37 53
-2.570736 0.510979 2.278461 118 97 119
-2.951603 1.607468 1.857634 22 23 33
-2.562716 -0.020673 2.329229 121 105 123
-2.960463 1.961367 1.798797 30 30 36
-2.553082 0.266666 2.291241 78 57 72
-2.943439 1.497210 1.860140 87 75 117
-2.936948 1.624186 1.838797 27 29 37
-2.514803 0.505848 2.224235 60 41 60
-2.911806 1.521039 1.824437 88 71 114
-2.904894 1.616876 1.813816 46 34 70
-2.496305 0.515965 2.201570 72 48 66
-2.736734 1.276263 1.943856 100 83 116
-2.736734 1.276263 1.943856 100 83 116
-2.493643 0.345607 2.218971 117 99 122
-2.638240 1.104223 1.993801 41 31 67
-2.466051 0.336222 2.186184 59 43 66
-2.464331 -0.296930 2.258260 134 115 136
-2.462563 0.481605 2.166898 126 108 137
-2.859890 1.465686 1.779717 126 105 130
-2.450116 0.146180 2.195485 111 96 117
-2.450039 0.145959 2.195524 111 96 117
-2.843567 1.629136 1.747646 40 34 57
-2.417675 0.161407 2.169068 69 47 66
-2.800873 1.527487 1.712045 40 29 49
-2.367988 -0.263083 2.157599 62 50 72
-2.807284 2.169030 1.553009 85 68 105
-2.737540 1.537680 1.648201 50 42 65
-2.469044 1.232433 1.844135 64 62 114
-2.732930 1.556958 1.640600 96 79 130
-2.732930 1.556958 1.640600 96 79 130
-2.726887 1.639583 1.630504 59 42 76
-2.320129 -0.167561 2.089687 139 115 127
-2.317109 -0.187783 2.086646 76 64 94
-2.294248 -0.439064 2.085811 80 58 87
-2.701050 1.598543 1.601759 39 33 58
-2.701050 1.598543 1.601759 39 33 58
-2.392943 0.954832 1.805198 40 29 69
-2.388498 1.030480 1.785774 71 64 115
-2.638619 1.547352 1.542173 100 86 134
-2.359031 0.789455 1.766576 36 27 53
-2.200092 -0.473037 1.999696 61 41 53
-2.310990 1.139273 1.697378 27 24 46
-2.318708 0.907276 1.715177 39 28 60
-2.309170 0.670884 1.733897 67 59 106
-2.292605 1.160335 1.680928 28 22 45
-2.559245 1.487739 1.475588 36 33 48
-2.400335 0.071340 1.713601 44 31 55
-2.241599 0.444622 1.688053 34 27 60
-2.512584 1.495203 1.425340 62 44 85
-3.211191 1.625391 0.998999 45 39 80
-3.211045 1.625118 0.999044 45 39 80
-2.324374 -0.248556 1.626764 88 68 111
-2.451709 1.559892 1.357225 69 55 89
-2.451709 1.559892 1.357225 69 55 89
-2.311050 -0.212845 1.625062 95 72 110
-2.299673 -0.183471 1.621108 87 68 107
-2.299673 -0.183471 1.621108 87 68 107
-2.441332 1.568960 1.347967 57 44 82
-2.155335 0.429773 1.590800 21 20 40
-2.137008 0.875051 1.542512 33 24 50
-2.293702 1.378686 1.339984 123 104 153
-2.299291 1.421883 1.325102 127 105 153
-2.340953 1.441056 1.254444 52 39 77
-2.142505 1.114501 1.349793 28 21 56
-2.139497 0.626335 1.385539 70 61 111
-2.266134 -0.131648 1.407979 34 29 60
-2.239707 -0.236448 1.415975 85 69 117
-2.117122 0.783904 1.352793 26 18 48
-2.249394 -0.130498 1.387643 109 90 133
-2.249394 -0.130498 1.387643 109 90 133
-2.273261 1.564958 1.170443 70 53 97
-2.092475 1.200658 1.284460 98 83 134
-2.112798 0.590852 1.337414 107 84 106
-2.192543 -0.366030 1.381392 88 70 111
-2.066906 1.105991 1.271268 26 20 51
-2.067601 0.920699 1.289223 88 75 129
-2.060738 1.065193 1.274357 53 39 73
-2.195766 -0.153847 1.331722 40 29 61
-2.224791 1.445873 1.121381 58 44 72
-2.031979 1.107380 1.237405 30 23 50
-2.132237 -0.045906 1.300432 106 83 128
-2.115675 -0.365726 1.320795 54 38 72
-2.166049 1.473857 1.070454 72 54 91
-2.157987 1.455045 1.064656 55 40 78
-2.156068 1.435774 1.063600 110 90 135
-1.975428 0.298231 1.247622 85 75 117
-1.975428 0.298231 1.247622 85 75 117
-2.131606 1.532805 1.024942 63 48 86
-2.131606 1.532805 1.024942 63 48 86
-2.202355 1.647917 0.975851 62 57 78
-2.202355 1.647917 0.975851 62 57 78
-1.925614 0.664220 1.144625 115 142 156
-1.916900 0.633717 1.143792 141 168 178
-1.878151 0.060940 1.169976 46 34 64
-1.943374 0.628539 1.080834 182 203 211
-1.841291 0.881444 1.088428 107 133 147
-1.837558 0.869748 1.081631 57 75 104
-1.833808 0.851146 1.077318 86 118 137
-2.002535 1.034156 0.991085 115 143 150
-1.947052 1.089936 1.002546 72 95 110
-1.819522 0.846243 1.063396 40 54 82
-1.970180 0.928848 0.986596 65 71 84
-1.970956 0.944497 0.975873 64 66 74
-2.014719 0.983831 0.954543 114 126 136
-1.991538 0.962805 0.960385 137 141 146
-1.839295 0.691405 1.031842 143 156 172
-1.998861 1.382990 0.901165 88 66 108
-1.987068 1.534672 0.879458 72 52 94
-1.753299 -0.026010 1.044766 44 33 65
-1.730033 0.211369 1.006350 76 67 110
-1.880168 1.442517 0.779540 66 50 91
-1.694128 0.262962 0.954909 31 26 55
-1.631650 1.164218 0.817073 48 33 71
-1.756436 -0.205793 0.885432 75 63 105
-1.754206 -0.225318 0.878435 41 29 49
-1.751443 -0.193213 0.870310 48 39 65
-1.706057 -0.085179 0.852638 110 90 135
-1.560846 0.896695 0.765196 37 29 59
-1.692858 -0.192072 0.821432 79 65 99
-1.692858 -0.192072 0.821432 79 65 99
-2.945413 1.742856 0.276267 43 29 70
-2.945413 1.742856 0.276267 43 29 70
-2.945434 1.711039 0.278073 37 29 66
-1.678742 -0.192759 0.793333 98 79 122
-2.915442 1.925078 0.228248 80 62 109
-1.285108 0.833409 0.654546 27 18 44
-1.265784 0.549266 0.675228 39 30 57
-1.265784 0.549266 0.675228 39 30 57
-1.273930 0.789413 0.636565 33 27 52
-1.273930 0.789413 0.636565 33 27 52
-1.259943 1.024453 0.606793 92 82 129
-1.259943 1.024453 0.606793 92 82 129
-1.258503 0.646707 0.645335 104 90 132
-1.254552 0.646498 0.645299 104 90 132
-1.293252 0.805438 0.596781 113 97 145
-1.613002 -0.644793 0.646485 34 32 62
-2.819479 1.996206 0.091282 101 82 107
-1.194494 0.789888 0.547171 110 91 146
-1.194494 0.789888 0.547171 110 91 146
-1.505417 1.357920 0.407788 52 46 57
-1.147791 0.579052 0.544290 65 45 80
-2.761522 1.775276 0.081250 63 46 90
-2.760718 1.849957 0.071229 49 32 76
-1.277824 -0.055078 0.566823 44 30 54
-1.101012 1.059218 0.451373 34 27 60
-1.459562 1.371801 0.328135 74 62 84
-2.713713 1.780230 0.031484 49 36 82
-2.713713 1.780230 0.031484 49 36 82
-0.727643 -0.019898 0.427480 142 123 138
-0.730322 0.046481 0.415841 103 80 95
-1.289973 1.393707 0.171441 113 94 143
-1.289973 1.393707 0.171441 113 94 143
-0.712807 -0.081911 0.409667 103 80 112
-0.984499 1.133543 0.159820 35 30 81
-2.562092 1.701969 -0.115922 56 40 88
-2.560411 1.872120 -0.135254 79 59 104
-1.039195 1.166113 0.124259 135 118 162
-0.590163 0.310204 0.247365 150 130 149
-0.582976 -0.661207 0.337545 99 76 98
-0.912032 0.795132 0.126998 32 29 68
-0.521240 -0.273226 0.243611 77 59 72
-0.513636 0.300034 0.177869 58 44 62
-0.523648 -0.670040 0.266887 152 126 140
-0.521069 -0.304480 0.227407 79 66 82
-0.514169 -0.285772 0.224597 93 76 87
-0.514169 -0.285772 0.224597 93 76 87
-0.506970 -0.323359 0.214911 139 119 142
-0.479753 -0.290720 0.207331 69 52 65
-0.473183 0.091859 0.154460 62 46 57
-0.473183 0.091859 0.154460 62 46 57
-0.457295 -0.299611 0.176267 87 67 86
-0.453434 0.285607 0.110636 74 60 88
-0.439209 -0.577881 0.190754 91 65 83
-0.424387 -0.439481 0.161097 87 75 95
-0.421191 -0.895845 0.202661 107 79 98
-0.420029 -0.294468 0.127044 144 123 138
-0.406422 -0.077068 0.098119 91 62 78
-0.391825 -1.074235 0.191795 156 124 135
-0.386427 -0.907630 0.170327 81 56 70
-0.395007 -0.309827 0.106209 85 66 91
-0.354505 0.233480 0.016513 136 116 135
-0.346373 0.257468 0.007686 76 59 73
-0.342517 -0.672595 0.090748 91 70 85
-0.333872 0.097124 0.009093 61 48 70
-2.367402 1.803944 -0.332636 109 95 136
-0.326930 -0.695604 0.075321 141 119 138
-0.310366 -0.787530 0.067163 100 80 99
-0.298541 -1.109610 0.098766 143 118 128
-0.297396 -0.512477 0.032138 79 58 80
-0.297497 0.662610 -0.093972 86 67 88
-0.305687 -0.730084 0.046989 138 119 138
-0.289372 0.995145 -0.144745 83 70 96
-0.279028 0.845804 -0.140286 124 108 125
-0.272954 -0.643743 0.011127 138 121 142
-0.268745 -1.102112 0.052478 87 61 79
-0.256728 -0.439095 -0.023544 68 46 64
-0.252616 -0.637514 -0.006407 80 58 82
-0.252616 -0.637514 -0.006407 80 58 82
-0.249214 -0.723763 -0.002172 66 43 57
-0.252489 0.040674 -0.081768 82 61 76
-0.255002 -0.528951 -0.024686 136 114 132
-0.252782 0.304844 -0.111300 89 67 86
-0.235301 1.152006 -0.226775 52 40 58
-0.220517 -0.726161 -0.037857 79 52 72
-0.220517 -0.726161 -0.037857 79 52 72
-0.191776 0.673484 -0.199081 130 112 129
-0.185415 -0.625170 -0.067653 146 121 135
-0.174919 -0.713692 -0.077126 139 115 133
-0.174919 -0.713692 -0.077126 139 115 133
-0.143426 0.899668 -0.302664 153 134 151
-0.129143 0.974796 -0.323273 91 69 93
-0.093024 -0.253273 -0.216326 79 62 89
-0.093024 -0.253273 -0.216326 79 62 89
-0.084138 -0.128868 -0.230460 143 124 139
-0.080755 1.140080 -0.363529 70 46 70
-0.075877 -0.143113 -0.234981 84 64 87
-0.058249 1.119776 -0.390953 126 111 132
-0.056221 1.119136 -0.391228 126 111 132
-0.067799 1.500858 -0.438167 94 77 104
-0.055551 -1.135760 -0.172445 141 122 143
-0.053032 -0.153952 -0.276561 90 67 99
-0.051977 0.864926 -0.387919 92 73 100
0.008783 0.071706 -0.358982 73 51 70
0.001902 1.455950 -0.505659 68 55 77
0.008779 0.623389 -0.424764 80 61 76
-0.004413 1.094866 -0.479183 153 137 160
0.022687 0.972454 -0.468720 150 130 153
0.050793 -0.538479 -0.328782 74 51 66
0.050793 -0.538479 -0.328782 74 51 66
0.037884 0.940462 -0.479892 64 52 72
0.031203 0.971782 -0.487064 137 123 147
0.034986 -0.335168 -0.361696 96 74 86
0.034986 -0.335168 -0.361696 96 74 86
0.066620 -1.130897 -0.285494 133 109 127
0.151419 0.775164 -0.592293 142 124 141
0.170138 -0.354801 -0.482792 98 69 94
0.170138 -0.354801 -0.482792 98 69 94
0.226462 0.613486 -0.631617 117 95 119
7.523482 -0.635697 -2.141594 244 199 185
7.509748 -0.081207 -2.198149 244 201 184
7.525139 0.687897 -2.335089 146 110 104
7.525987 -0.639972 -2.210026 244 201 184
7.537454 0.455781 -2.321040 244 201 184
7.542194 -0.092248 -2.271671 245 205 186
7.659070 -1.817128 -2.120970 177 141 147
7.537239 -2.294704 -2.114056 255 212 195
-3.302764 0.601733 3.023618 125 103 121
-3.303281 0.689093 3.007571 98 71 87
-3.308215 0.148162 3.065319 123 99 117
-3.296455 1.719587 2.894732 88 65 79
-3.295981 1.937886 2.867996 139 116 121
-3.303236 0.263983 3.050797 123 100 105
-3.301303 0.230565 3.055496 120 97 111
-3.292571 1.519687 2.911586 73 54 63
-3.296134 0.194515 3.053542 135 114 129
-3.278834 1.239767 2.940279 76 62 64
-3.286698 0.246477 3.047536 46 33 35
-3.281963 1.226385 2.937769 132 111 120
-3.287870 0.655043 2.998340 94 68 82
-3.282893 1.830196 2.861947 70 53 66
-3.282215 1.981527 2.832141 67 50 59
-3.270088 2.005743 2.832862 121 102 119
-3.270088 2.005743 2.832862 121 102 119
-3.274589 0.400294 3.006223 93 67 83
-3.266142 1.243346 2.913529 123 101 119
-3.272445 0.546856 2.986165 86 62 86
-3.270888 0.339980 3.005633 87 62 76
-3.262096 0.383441 2.992568 81 62 71
-3.246945 0.831801 2.932432 133 107 123
-3.238795 1.010197 2.914768 65 47 60
-3.238795 1.010197 2.914768 65 47 60
-3.230041 1.462474 2.848736 122 78 85
-3.232260 1.504868 2.842223 67 33 39
-3.234371 1.530672 2.835400 114 71 82
-3.225325 1.419660 2.847013 37 23 17
-3.231335 0.434366 2.949676 122 96 119
-3.224626 0.517498 2.940674 138 110 130
-3.211432 0.885792 2.903601 71 46 56
-3.212428 0.783979 2.913172 58 41 54
-3.202104 1.360058 2.842668 57 43 54
-3.205634 0.880416 2.892241 82 52 65
-3.195536 0.611896 2.909283 111 77 83
-3.197179 0.114674 2.956050 93 62 77
-3.189254 0.617049 2.902034 140 113 122
-3.183291 1.707223 2.780732 55 39 46
-3.192591 1.686583 2.773849 139 115 127
-3.187644 0.040057 2.957362 110 94 112
-3.187132 0.044808 2.955814 120 109 125
-3.184014 0.632223 2.891444 104 78 91
-3.184602 2.278002 2.706248 131 119 125
-3.181343 1.446367 2.795878 252 183 166
-3.181343 1.446367 2.795878 252 183 166
-3.168891 0.814443 2.870229 44 30 34
-3.175702 2.270468 2.701898 66 51 55
-3.171726 0.784372 2.868608 41 31 43
-3.170566 0.639641 2.874105 91 66 86
-3.170566 0.639641 2.874105 91 66 86
-3.165374 0.251703 2.905624 133 109 117
-3.154801 1.370320 2.783158 120 97 111
-3.145211 2.139412 2.700609 46 35 43
-3.149729 2.264629 2.681762 58 45 53
-3.157108 0.362808 2.889535 57 39 46
-3.153943 0.295047 2.895647 71 52 61
-3.154632 0.385018 2.884738 72 50 55
-3.154632 0.385018 2.884738 72 50 55
-3.150570 1.469723 2.759546 60 32 25
-3.145287 0.664169 2.849029 91 69 88
-3.140035 1.954528 2.692280 130 106 118
-3.140035 1.954528 2.692280 130 106 118
-3.134476 0.044487 2.908357 65 52 66
-3.124876 1.372254 2.757107 112 95 106
-3.126036 1.397547 2.748855 114 97 108
-3.194301 2.410702 2.582800 39 30 33
-3.116844 0.235750 2.865414 48 38 44
-3.111132 1.660075 2.709571 74 64 77
-3.117114 0.423386 2.843575 132 102 121
-3.117240 1.961526 2.666045 57 49 56
-3.111235 0.689605 2.804420 80 59 81
-3.103798 0.223942 2.854270 106 85 93
-3.096280 0.244131 2.853797 129 103 121
-3.091054 0.254718 2.848974 136 108 127
-3.085851 1.478352 2.709162 55 41 53
-3.092385 0.222354 2.843946 116 92 102
-3.087321 0.655861 2.794043 70 50 63
-3.076257 2.159626 2.623491 108 92 110
-3.084367 1.799930 2.657856 107 91 102
-3.151746 2.411345 2.541068 29 28 24
-3.059233 0.037423 2.839316 80 59 74
-3.043382 2.144636 2.602465 51 44 51
-3.054668 1.819776 2.631986 122 101 110
-3.056172 1.803698 2.631472 56 43 51
-3.049571 1.805032 2.633269 56 43 51
-3.052479 1.336110 2.677892 46 38 49
-3.041796 1.033043 2.707066 114 94 106
-3.042462 0.018941 2.816486 69 59 82
-3.039860 1.138800 2.692335 72 58 69
-3.034299 1.104497 2.697258 73 53 58
-3.041802 0.557212 2.753132 134 106 125
-3.039027 0.223633 2.788983 51 43 50
-3.025318 1.491658 2.654441 128 108 113
-3.035138 0.737632 2.726644 114 96 119
-3.025249 1.802188 2.607178 51 37 41
-3.026063 0.579587 2.730839 141 117 135
-3.009864 1.470015 2.638285 111 94 105
-3.017399 0.351040 2.751003 132 108 126
-3.016584 1.366845 2.639279 76 60 61
-3.008617 0.232193 2.765980 85 56 71
-3.006214 1.669076 2.604083 51 34 47
-3.006214 1.669076 2.604083 51 34 47
-2.996367 1.198184 2.643898 49 42 57
-3.001853 0.369555 2.730360 130 105 119
-2.990618 0.976209 2.669200 57 42 56
-2.999159 0.754056 2.687823 50 42 53
-2.990037 1.329811 2.627412 48 38 51
-2.984731 0.770964 2.680906 126 100 114
-2.981812 0.035000 2.748536 77 53 63
-2.972632 0.846781 2.654679 136 118 135
-2.966369 0.210896 2.722878 118 99 116
-2.975545 0.117149 2.727075 118 97 122
-2.963931 1.481097 2.580284 129 106 111
-2.961351 1.681435 2.554655 49 36 44
-2.958052 0.554683 2.679386 59 45 57
-2.956068 0.554299 2.679948 59 45 57
-2.956352 1.469072 2.576134 58 45 59
-2.940235 1.966258 2.526980 42 36 41
-2.955962 0.542158 2.671107 129 103 121
-2.954115 1.339682 2.583481 77 56 71
-2.952374 1.325825 2.585271 115 99 106
-2.947245 2.072979 2.501102 42 32 48
-2.953838 0.215547 2.700402 126 104 128
-2.947469 1.080592 2.599850 123 98 112
-2.938833 0.551933 2.656045 61 43 56
-2.938833 0.551933 2.656045 61 43 56
-2.941674 0.222780 2.690113 83 53 66
-2.941674 0.222780 2.690113 83 53 66
-2.929612 0.728917 2.625592 103 90 106
-2.932202 0.222842 2.678302 101 67 78
-2.932202 0.222842 2.678302 101 67 78
-2.933652 0.356565 2.662295 118 95 117
-2.926788 1.266590 2.561890 109 90 105
-2.919952 0.368776 2.660285 47 37 54
-2.921537 1.550648 2.529732 43 36 49
-2.914194 1.264148 2.556014 53 31 43
-2.908463 0.822716 2.605956 64 53 69
-2.908463 0.822716 2.605956 64 53 69
-2.917573 0.768414 2.595159 79 60 79
-2.908013 1.043762 2.569409 70 52 69
-2.919954 1.115736 2.546176 107 90 111
-2.919954 1.115736 2.546176 107 90 111
-2.891806 0.338428 2.633340 124 108 132
-2.894457 0.752111 2.583274 126 105 127
-2.892524 1.158560 2.533872 118 100 117
-2.890104 0.434974 2.608352 83 66 93
-2.890104 0.434974 2.608352 83 66 93
-2.885820 1.184581 2.527359 114 99 113
-2.868123 1.929267 2.451801 38 31 36
-2.871613 0.355564 2.615949 46 36 49
-2.862306 1.248709 2.503113 47 36 52
-2.859388 0.744757 2.551741 120 101 122
-2.876758 2.255168 2.379139 107 92 106
-2.876758 2.255168 2.379139 107 92 106
-2.857912 0.964606 2.527817 102 80 98
-2.854383 1.061330 2.513112 113 93 106
-2.862853 2.024513 2.402516 39 39 53
-2.854058 0.834845 2.532970 115 95 108
-2.846013 1.457408 2.468987 44 34 50
-2.848508 0.219626 2.597434 129 107 125
-2.847234 0.701941 2.544151 85 66 83
-2.867957 2.254277 2.361309 105 92 106
-2.840852 0.709445 2.540567 107 89 102
-2.840852 0.709445 2.540567 107 89 102
-2.835706 0.948335 2.513004 50 36 54
-2.839654 0.909811 2.513510 118 92 108
-2.839542 1.916642 2.394038 35 28 41
-2.832208 0.894487 2.506034 64 49 70
-2.831790 0.850308 2.504815 103 85 114
-2.817634 -0.114674 2.593412 135 109 127
-2.820200 0.694285 2.503826 120 99 124
-2.807704 1.378066 2.425676 55 39 50
-2.795306 -0.137328 2.581776 55 48 61
-2.792635 0.348121 2.529095 55 42 64
-2.787861 1.633165 2.387857 27 23 28
-2.775128 -0.011991 2.546779 73 63 93
-2.776383 0.815287 2.446773 79 63 86
-2.776383 0.815287 2.446773 79 63 86
-2.761061 -0.027009 2.539698 130 109 131
-2.755426 0.350158 2.490465 59 46 60
-2.749365 1.638259 2.348172 33 29 35
-2.746608 1.638524 2.348676 33 29 35
-2.749115 2.158308 2.291730 23 18 20
-2.728619 0.349868 2.457136 66 48 71
-2.711414 0.832428 2.396645 66 50 68
-2.716943 1.154904 2.358492 44 34 47
-2.711028 0.102404 2.472839 123 104 125
-2.712093 0.821031 2.394385 114 94 106
-2.702410 0.350205 2.439111 106 94 116
-2.704013 0.524143 2.414686 84 63 88
-2.701094 0.175030 2.448799 60 43 56
-2.690721 -0.161863 2.472809 125 113 131
-2.690721 -0.161863 2.472809 125 113 131
-2.686098 0.437537 2.405568 69 51 68
-2.686098 0.437537 2.405568 69 51 68
-2.661419 0.036107 2.416165 60 44 67
-2.661419 0.036107 2.416165 60 44 67
-2.637744 -0.230907 2.451251 61 42 63
-2.645805 0.162294 2.394053 113 96 110
-2.605687 0.629473 2.301916 79 53 69
-2.595167 -0.132746 2.382590 139 111 131
-2.592364 0.574472 2.293695 84 67 81
-2.592364 0.574472 2.293695 84 67 81
-2.575284 -0.082727 2.360546 119 103 121
-2.575417 -0.035323 2.350705 51 34 43
-2.569680 -0.082356 2.350739 60 43 56
-2.582371 0.628482 2.260748 126 109 136
-2.582371 0.628482 2.260748 126 109 136
-2.567437 0.174417 2.312562 60 43 57
-2.567437 0.174417 2.312562 60 43 57
-2.557768 0.519080 2.279060 68 42 58
-2.557768 0.519080 2.279060 68 42 58
-2.553716 -0.138788 2.331875 129 110 129
-2.535807 -0.217776 2.320143 136 115 137
-3.080369 2.218467 1.844188 24 28 52
-2.509965 -0.009303 2.271870 67 54 80
-2.856757 1.381911 1.988813 36 35 75
-2.860660 1.393080 1.976692 116 100 153
-2.486607 0.167551 2.233745 61 45 62
-2.884549 1.425340 1.959819 126 108 161
-3.000971 1.478281 1.911621 131 113 144
-3.000971 1.478281 1.911621 131 113 144
-2.476194 0.459206 2.189021 88 65 87
-2.476315 0.471288 2.186296 78 57 79
-2.469884 0.347925 2.193401 118 101 115
-2.459343 0.159031 2.209467 58 48 61
-2.458027 0.500771 2.172063 70 52 69
-3.029404 2.183313 1.800957 104 87 108
-2.969921 1.528570 1.883195 40 30 47
-2.453805 -0.233813 2.233737 141 119 143
-2.990548 2.178734 1.785171 58 51 64
-2.955359 1.509833 1.865359 30 29 33
-2.937328 1.548120 1.849392 110 94 101
-2.409564 -0.281337 2.200847 75 54 86
-2.406459 -0.262652 2.198302 131 113 136
-2.951414 2.060256 1.778357 46 44 56
-2.921104 1.630206 1.819717 87 77 124
-2.928143 2.068924 1.769746 29 24 39
-2.370396 -0.171848 2.145813 70 59 79
-2.323468 -0.179236 2.098879 86 60 78
-2.720857 1.442926 1.779576 63 56 77
-2.836422 2.096339 1.676079 23 22 24
-2.471756 1.267707 1.852116 36 26 62
-2.814326 1.681265 1.710103 68 63 84
-2.463035 1.032223 1.854998 40 31 57
-2.879010 1.707767 1.665532 58 51 72
-2.255053 -0.222728 2.027704 45 29 47
-2.792700 1.509207 1.698736 47 34 58
-2.799683 1.953131 1.644463 27 24 50
-2.852210 2.315421 1.556708 135 106 97
-2.201780 -0.307865 1.990197 57 43 55
-2.397436 1.026460 1.802505 30 23 44
-2.390223 1.030913 1.785298 76 69 120
-2.185781 -0.488585 1.987472 128 102 115
-2.710714 1.486035 1.628163 45 39 58
-2.373022 0.455396 1.786635 71 61 104
-2.363837 0.456064 1.777237 26 17 57
-2.336688 0.946198 1.732550 25 20 35
-2.345409 0.971919 1.725135 64 58 111
-2.342665 0.937426 1.720245 76 67 118
-2.318155 0.662735 1.753251 29 21 51
-2.303525 0.820966 1.725931 43 34 67
-2.303742 1.247512 1.682277 36 26 68
-2.309775 0.671424 1.733707 69 63 110
-2.289999 1.161052 1.681455 26 21 48
-2.289999 1.161052 1.681455 26 21 48
-2.291780 0.709126 1.724845 33 26 59
-2.292424 1.220006 1.672478 38 29 69
-2.433754 0.294210 1.732533 46 42 84
-2.433754 0.294210 1.732533 46 42 84
-2.645095 1.594747 1.550993 34 32 52
-2.353538 0.970520 1.667463 37 27 73
-2.642088 1.547446 1.541396 106 90 138
-2.293211 0.880279 1.686378 62 52 98
-2.285009 0.756993 1.699077 36 33 78
-2.630718 1.621636 1.529728 34 28 59
-2.630718 1.621636 1.529728 34 28 59
-2.725943 1.690242 1.500430 25 25 39
-2.627147 1.489869 1.534910 110 92 139
-2.333481 0.976115 1.624089 40 34 75
-2.270542 0.423303 1.692826 34 25 58
-2.270542 0.423303 1.692826 34 25 58
-2.322365 0.987052 1.623024 101 87 135
-2.322365 0.987052 1.623024 101 87 135
-2.218173 0.701271 1.646525 47 34 66
-2.204521 1.207852 1.585862 32 25 52
-2.218531 0.099234 1.665417 30 23 56
-2.218531 0.099234 1.665417 30 23 56
-2.537276 1.503234 1.441226 115 95 142
-2.176223 0.344375 1.620173 36 34 64
-2.153231 1.000116 1.541307 24 18 49
-2.143633 0.428932 1.593059 22 18 43
-2.325771 -0.247608 1.626427 91 70 115
-2.131694 0.875164 1.543479 33 27 50
-2.263417 -0.163829 1.591281 24 18 37
-2.453047 1.561741 1.354780 58 47 87
-2.153336 1.327021 1.427747 27 25 55
-2.450545 1.504938 1.359099 64 47 90
-2.425348 1.452511 1.337221 61 45 76
-2.254898 1.349500 1.358131 54 45 101
-2.245467 1.331462 1.344065 124 105 156
-2.172124 0.932424 1.387677 93 80 132
-2.164847 0.720988 1.405140 93 76 119
-2.161589 1.041638 1.371427 92 76 123
-2.154335 1.238692 1.345617 48 32 86
-2.231999 0.066388 1.421881 78 67 107
-2.118108 0.927603 1.349376 95 77 130
-2.347392 1.589738 1.241864 53 39 81
-2.268031 -0.150072 1.425757 67 59 106
-2.110589 0.747822 1.355058 46 32 74
-2.104723 1.156532 1.313162 51 36 80
-2.104723 1.156532 1.313162 51 36 80
-2.107289 0.721661 1.353911 33 24 57
-2.269688 -0.168013 1.416401 30 24 49
-2.098080 1.097008 1.297249 44 38 91
-2.224542 -0.031394 1.385628 105 84 129
-2.203937 0.387647 1.342962 101 84 127
-2.072671 0.952216 1.290829 29 24 53
-2.072671 0.952216 1.290829 29 24 53
-2.066724 0.634735 1.321393 31 23 46
-2.204558 -0.078581 1.364582 112 93 132
-2.203144 -0.078828 1.364478 112 93 132
-2.052118 0.959191 1.267059 98 83 134
-3.210822 1.633091 1.036999 36 34 64
-2.199465 -0.172889 1.330905 114 94 141
-2.199465 -0.172889 1.330905 114 94 141
-2.014361 0.913998 1.238833 96 80 133
-2.037976 0.351879 1.286742 100 83 134
-2.055814 1.280987 1.185961 114 97 148
-3.215439 1.626168 1.017947 56 40 87
-3.146555 2.092854 0.975490 41 36 63
-2.021778 1.250450 1.180733 38 33 78
-2.021778 1.250450 1.180733 38 33 78
-2.094415 1.327870 1.160880 49 43 92
-2.094415 1.327870 1.160880 49 43 92
-2.112753 -0.366320 1.321200 56 39 72
-2.141788 -0.168664 1.297172 38 27 47
-2.055972 1.132314 1.173782 109 96 142
-2.089509 1.308693 1.147653 123 104 155
-2.073422 1.279111 1.149446 121 105 153
-2.020899 1.183474 1.162503 78 66 118
-2.128000 -0.159936 1.266953 83 64 107
-2.132231 -0.123557 1.262017 97 81 112
-1.960697 0.674521 1.180359 118 141 157
-1.897331 1.022021 1.145496 104 128 146
-1.932902 0.557092 1.181715 142 157 166
-1.937894 0.207152 1.214851 22 20 50
-1.995625 1.087160 1.116668 40 49 82
-2.159857 1.536453 1.057483 54 40 74
-2.162380 1.436130 1.063000 115 94 139
-1.996481 1.049363 1.113418 159 169 176
-1.922451 0.165859 1.206414 44 28 59
-1.924338 0.637483 1.158613 116 136 153
-1.924338 0.637483 1.158613 116 136 153
-1.928389 0.656146 1.152458 103 120 139
-2.243829 1.632801 1.028361 67 56 82
-2.223216 1.616836 1.011246 144 123 156
-1.880371 0.433820 1.149695 85 108 124
-1.954369 1.007336 1.083635 138 159 167
-1.958926 0.990879 1.076936 58 63 88
-1.872613 0.132739 1.155798 47 35 63
-1.866017 0.161772 1.150821 92 81 121
-1.866017 0.161772 1.150821 92 81 121
-1.894388 1.213816 1.042315 33 25 56
-1.894388 1.213816 1.042315 33 25 56
-1.942246 0.622856 1.092621 172 194 205
-1.934156 0.609530 1.086405 183 202 210
-1.934156 0.609530 1.086405 183 202 210
-1.997050 1.075688 1.034374 72 79 98
-1.955681 0.657905 1.074579 166 188 199
-1.950931 0.649104 1.075430 116 130 148
-3.172707 2.077961 0.845285 51 39 61
-1.845685 0.151378 1.126796 30 25 56
-1.845685 0.151378 1.126796 30 25 56
-1.845685 0.151378 1.126796 30 25 56
-1.838195 0.425486 1.100509 73 94 116
-1.973478 0.957615 1.037563 129 145 157
-2.006091 1.019118 1.023810 60 61 71
-1.831740 0.425804 1.082454 123 140 153
-2.006375 1.043492 1.003022 47 59 83
-1.956598 1.069383 1.003083 47 59 69
-1.818867 0.151232 1.099139 86 74 116
-2.007844 1.035643 0.990616 125 148 156
-1.944970 1.066612 0.988015 18 21 35
-1.814482 0.394837 1.060597 33 31 61
-1.997873 0.973770 0.980347 147 159 165
-1.810718 0.364669 1.047234 36 30 53
-1.861484 1.118430 0.965003 32 32 68
-1.861484 1.118430 0.965003 32 32 68
-1.998381 0.976128 0.967510 83 82 92
-1.998381 0.976128 0.967510 83 82 92
-1.773854 0.171640 1.049320 92 76 123
-2.000415 1.015999 0.954187 96 102 113
-1.770493 0.149874 1.039643 45 31 65
-1.960916 0.948033 0.931714 135 131 137
-1.960916 0.948033 0.931714 135 131 137
-2.019617 -0.543146 1.063591 35 28 49
-1.978665 0.993796 0.910142 17 18 32
-1.961910 0.963851 0.908397 201 196 198
-3.155866 1.898854 0.764934 32 27 58
-1.725591 0.038303 1.006303 103 82 115
-3.158098 1.859814 0.766156 32 25 58
-1.709493 0.266408 0.974567 88 73 111
-1.709493 0.266408 0.974567 88 73 111
-1.709616 -0.003099 0.996059 48 33 60
-2.032672 1.592748 0.806067 136 115 147
-1.681509 0.140904 0.954415 46 33 59
-3.175088 2.059444 0.708557 53 40 54
-1.741103 -0.181962 0.954762 33 26 47
-1.881872 1.442700 0.779478 67 48 91
-3.156105 1.988395 0.690307 39 32 53
-1.632716 0.572769 0.861674 97 81 129
-1.648273 0.523422 0.854340 102 87 115
-1.607077 0.924898 0.805843 54 42 94
-1.714335 -0.408292 0.904077 64 47 81
-1.724262 -0.008258 0.862880 91 77 113
-1.723001 -0.008241 0.862652 91 77 113
-1.708791 -0.136459 0.857661 94 75 118
-1.784677 1.380644 0.684818 61 47 71
-1.766541 1.528106 0.653540 49 37 67
-1.766541 1.528106 0.653540 49 37 67
-3.159795 1.922028 0.601912 78 66 108
-1.844563 1.611983 0.608711 60 50 62
-1.708515 1.394085 0.607154 48 38 55
-1.525199 1.245761 0.609869 137 118 169
-1.276082 0.809745 0.632366 86 73 127
-1.689319 1.420189 0.580151 53 37 60
-1.298789 0.828371 0.624707 30 25 70
-1.245386 0.763645 0.609885 62 47 91
-1.295965 0.855790 0.540921 56 41 92
-1.280037 0.834804 0.538279 61 43 96
-1.598161 1.409479 0.487734 74 54 101
-1.699688 1.576839 0.472950 75 62 84
-1.126743 0.675179 0.516197 36 28 59
-1.126743 0.675179 0.516197 36 28 59
-1.099095 1.067494 0.429366 92 81 131
-1.075433 0.800864 0.453136 36 27 60
-1.075433 0.800864 0.453136 36 27 60
-3.211125 2.078761 0.430251 90 80 110
-0.800282 -0.668486 0.570296 94 70 100
-1.075209 0.699774 0.420388 78 69 120
-1.075209 0.699774 0.420388 78 69 120
-1.425079 1.469892 0.303194 75 56 95
-0.954138 1.102653 0.298110 49 35 76
-1.415060 1.377627 0.301960 50 38 60
-1.413449 1.451842 0.292324 79 61 98
-0.636723 -0.587756 0.391157 91 68 90
-0.623846 -0.046225 0.331925 150 125 129
-3.011199 1.952993 0.321669 54 38 69
-2.998136 1.933236 0.309064 66 48 85
-0.567038 -0.066120 0.276543 90 64 82
-0.565878 -1.076206 0.369163 87 63 93
-1.319259 1.379128 0.201793 87 62 106
-1.037033 1.269278 0.183696 29 30 51
-0.536723 -0.783231 0.308641 150 124 137
-1.299271 1.421899 0.169885 125 105 152
-0.970188 1.013338 0.173625 114 96 135
-0.525988 -1.113110 0.326904 103 69 93
-2.952792 1.851196 0.270386 42 26 57
-0.511673 -1.096414 0.316270 90 64 87
-1.098701 1.265054 0.145397 29 26 58
-0.490220 -1.104208 0.307878 85 62 84
-0.502479 -0.065286 0.203610 77 55 74
-0.504914 -1.077557 0.297813 96 67 90
-0.994589 1.057000 0.144950 122 102 144
-1.035972 1.179660 0.137256 33 31 83
-0.489336 -1.190946 0.302730 98 66 90
-2.939015 1.942891 0.244865 129 108 147
-0.979469 1.041422 0.137151 65 50 82
-0.483661 -0.055683 0.172191 91 67 85
-0.461049 -0.885742 0.244728 88 70 87
-0.463691 -0.865427 0.238826 158 132 146
-2.918099 1.934650 0.224509 115 96 135
-0.454784 -1.182787 0.262239 199 167 178
-2.945515 2.006499 0.210063 103 82 107
-2.945515 2.006499 0.210063 103 82 107
-3.011420 2.175319 0.199604 157 135 129
-0.435365 -0.724454 0.191174 144 121 135
-0.393921 -1.095029 0.199975 103 75 95
-0.401142 -0.083132 0.097826 109 85 97
-0.382596 -0.909698 0.170098 92 64 77
-0.390961 -0.078527 0.078087 88 60 83
-0.391472 -0.065506 0.073416 151 126 140
-0.371883 -0.452356 0.100249 145 126 141
-1.139381 1.439981 0.008536 78 58 93
-1.139381 1.439981 0.008536 78 58 93
-0.356790 -0.496675 0.094652 134 116 129
-1.127064 1.422519 -0.002702 88 65 109
-0.338280 -1.099177 0.135940 100 71 87
-0.337613 -1.212693 0.137340 126 91 111
-2.928640 2.040156 0.145008 64 48 82
-0.326494 -1.154158 0.125727 170 142 155
-0.325799 -0.569770 0.058594 102 70 95
-0.317744 -0.723112 0.069748 101 78 92
-0.334365 -0.418482 0.041331 155 129 143
-0.300731 -1.224842 0.108782 117 83 89
-2.819227 1.794739 0.137593 60 37 75
-0.284817 -1.124374 0.080665 91 67 79
-0.286205 -0.721085 0.038898 100 71 97
-0.286205 -0.721085 0.038898 100 71 97
-0.269798 -1.300061 0.086599 104 78 96
-0.257903 -0.329946 -0.019633 140 119 134
-0.277621 0.856601 -0.135889 96 71 91
-0.261476 -0.092847 -0.054494 83 64 81
-0.285398 -0.669302 0.000637 146 123 145
-0.236516 -1.341508 0.055730 103 77 95
-0.252281 -0.723170 -0.001806 76 50 73
-0.244867 0.265141 -0.095679 68 49 74
-0.248642 0.080861 -0.083113 72 54 67
-0.248642 0.080861 -0.083113 72 54 67
-0.244165 -0.367549 -0.044347 91 68 83
-0.229369 -0.513387 -0.043111 92 67 87
-0.211534 -0.643490 -0.042318 87 65 90
-0.225335 -0.740320 -0.031816 146 127 142
-0.204329 -0.645371 -0.044229 87 65 90
-0.155096 -0.634554 -0.071005 148 123 137
-0.208986 -0.501622 -0.079130 88 62 78
-0.163512 -1.294622 -0.018727 91 64 90
-0.199356 0.926481 -0.221856 148 129 150
-0.163829 -0.939303 -0.058817 72 43 59
-0.178571 -0.880509 -0.063267 102 79 101
-0.173340 -0.645388 -0.086963 94 68 84
-0.168617 -0.574181 -0.095582 93 65 84
-0.168617 -0.574181 -0.095582 93 65 84
-0.168052 -1.262152 -0.033423 97 62 82
-0.168052 -1.262152 -0.033423 97 62 82
-0.162894 0.282518 -0.191039 81 59 77
-0.159643 0.248138 -0.189699 80 62 85
-0.162414 0.083103 -0.175788 84 62 87
-0.160289 0.822693 -0.249426 123 105 128
-0.171042 -0.701136 -0.108085 143 119 131
-0.180084 0.880303 -0.254435 146 127 144
-0.180084 0.880303 -0.254435 146 127 144
-0.153701 0.687785 -0.249487 74 53 68
-0.155654 1.139565 -0.305499 60 48 70
-0.139772 0.839964 -0.281029 52 40 58
-0.129122 0.827786 -0.300858 122 103 124
-0.104004 0.656718 -0.291120 69 56 78
-0.130910 0.991683 -0.318482 145 129 152
-0.079419 -0.187709 -0.228047 87 70 97
-0.091248 0.428061 -0.286648 71 58 82
-0.108216 0.840334 -0.322590 79 57 81
-0.053321 -1.469711 -0.120076 102 76 90
-0.080637 -0.306080 -0.223722 142 117 131
-0.080637 -0.306080 -0.223722 142 117 131
-0.055940 -0.949445 -0.178388 100 71 87
-0.013179 -1.474617 -0.156126 105 73 97
-0.025423 -1.131561 -0.188266 101 68 89
-0.043847 0.237904 -0.323066 81 59 87
-0.018493 0.443990 -0.348095 147 126 141
0.011992 -0.775244 -0.249289 142 123 138
0.027935 -1.479761 -0.205535 102 70 87
0.027935 -1.479761 -0.205535 102 70 87
-2.845877 2.154849 -0.056113 68 44 52
0.008673 -0.123525 -0.334162 106 82 106
-2.622539 1.912056 -0.077182 80 56 88
0.005062 0.567713 -0.403666 145 131 149
0.015845 -0.742363 -0.289084 94 70 82
0.015845 -0.742363 -0.289084 94 70 82
0.027093 -0.712284 -0.294277 101 73 96
0.040877 -1.496905 -0.225647 145 123 141
0.015397 -0.373763 -0.328614 102 80 105
-2.858671 2.147357 -0.069079 255 228 211
0.026669 0.422709 -0.410694 54 39 53
0.063322 -1.342235 -0.256501 138 115 123
0.070417 -1.481494 -0.249471 98 70 90
0.070417 -1.481494 -0.249471 98 70 90
0.038673 -0.155544 -0.366846 108 81 101
0.071465 -1.441163 -0.256866 107 71 88
0.039397 0.643704 -0.444119 145 120 134
0.006561 1.132680 -0.484135 145 126 145
0.006561 1.132680 -0.484135 145 126 145
0.075833 -1.332485 -0.272512 69 42 58
0.064191 0.055345 -0.411062 102 80 104
0.085160 -0.539320 -0.368105 75 48 68
0.085160 -0.539320 -0.368105 75 48 68
0.053067 0.838833 -0.491573 153 134 149
-2.571876 1.749410 -0.107850 57 39 68
0.093373 -0.762618 -0.361791 111 79 103
-2.574304 1.824903 -0.119339 78 53 87
0.066045 1.117005 -0.531708 98 76 100
0.061914 0.927957 -0.520868 150 132 149
0.097281 1.459934 -0.610502 142 127 148
0.132100 0.935730 -0.575642 156 137 156
0.164611 1.455662 -0.674314 143 128 149
-2.932952 2.136711 -0.162246 202 147 120
-2.383043 1.888140 -0.322697 82 54 90
-2.371469 1.872457 -0.329606 51 33 64
-2.367463 1.982088 -0.422218 73 59 95
8.279013 -4.077703 -2.981475 255 213 196
8.285060 -4.271512 -2.972769 177 128 120
8.296192 -4.222227 -2.993502 183 134 126
8.288878 -4.798330 -2.952216 214 162 155
8.313026 -4.761263 -2.964975 216 166 154
8.311868 -4.359763 -3.013932 166 132 133
8.321040 -4.783459 -2.985412 242 197 184
8.321040 -4.783459 -2.985412 242 197 184
8.319810 -4.521306 -3.008706 183 130 120
8.351081 -0.943728 -3.353136 214 164 152
8.341608 -4.226028 -3.073250 159 118 125
8.358206 -1.883702 -3.288519 241 200 185
8.358206 -1.883702 -3.288519 241 200 185
8.328205 -4.778007 -3.027074 244 198 181
8.363560 -4.161378 -3.101669 184 134 128
8.519978 -3.329404 -3.222951 244 202 189
8.366290 -4.113072 -3.119436 169 130 132
8.366290 -4.113072 -3.119436 169 130 132
8.381760 -4.054492 -3.130459 232 194 189
8.360742 -1.910822 -3.314637 190 144 133
8.360742 -1.910822 -3.314637 190 144 133
8.355326 -1.083480 -3.392113 208 157 147
8.380020 -4.164257 -3.130812 243 204 190
8.383593 -1.887443 -3.337450 247 202 188
8.370281 -1.124940 -3.401118 190 145 131
8.388970 -1.888916 -3.339207 247 202 188
8.402897 -1.114312 -3.435056 245 201 188
8.411390 -1.920262 -3.374060 193 145 133
8.404761 -1.273262 -3.446565 250 207 186
8.510515 -0.741973 -3.528468 66 53 79
8.542528 0.775931 -3.691126 141 115 138
8.455815 -4.104034 -3.265157 250 210 192
8.478227 1.135753 -3.744144 240 197 180
8.462684 -4.022967 -3.287156 149 117 134
8.472479 1.490334 -3.788502 231 193 181
8.472200 -1.887587 -3.499403 197 148 138
8.525517 0.927007 -3.769718 146 120 144
8.525713 0.927248 -3.769808 146 120 144
8.490602 1.150957 -3.789253 174 131 122
8.546941 -4.187183 -3.337682 221 172 162
8.503408 -4.158705 -3.335245 208 157 147
8.531201 -4.940612 -3.283957 213 161 148
8.507333 -1.090155 -3.633866 250 206 193
8.499308 -1.247428 -3.617910 164 118 111
8.486014 1.517436 -3.864424 162 125 121
8.584937 0.998707 -3.860233 90 69 102
8.556155 -3.562811 -3.481054 228 176 164
8.555405 -0.269104 -3.772909 248 207 192
8.551613 -0.357228 -3.773610 247 204 187
8.560114 0.288038 -3.832987 244 201 186
8.544220 -0.810029 -3.732249 254 213 198
8.573216 0.829616 -3.903280 241 198 183
8.539543 -1.230939 -3.714565 244 204 186
8.524751 -0.307170 -3.799021 172 125 121
8.524751 -0.307170 -3.799021 172 125 121
8.504803 -0.029347 -3.820768 170 123 119
8.594701 -4.160607 -3.486222 219 169 157
8.542291 0.245364 -3.860653 164 119 115
8.538896 0.519089 -3.888278 164 116 114
8.550062 -0.862307 -3.773438 171 123 119
8.536647 0.792781 -3.916186 157 114 111
8.545094 -0.585517 -3.802353 169 124 120
8.729781 1.060568 -4.047834 153 113 108
8.645193 -0.633524 -3.884314 237 195 182
8.653040 0.474051 -4.004207 225 188 174
8.653040 0.474051 -4.004207 225 188 174
8.669687 1.027687 -4.060740 225 187 175
8.661085 -0.810258 -3.903610 180 133 129
8.664879 -1.642680 -3.863110 244 201 184
8.694591 1.047232 -4.120664 153 114 106
8.691257 -1.800713 -3.882393 159 117 112
8.741528 -1.783045 -3.937544 206 201 200
8.742734 -1.919352 -3.928504 246 203 188
8.758883 -1.660853 -3.975055 242 199 190
8.795367 -1.844125 -3.985536 120 126 145
8.830385 -1.742334 -4.018788 215 207 207
8.812297 -1.915704 -4.004489 209 171 169
8.883391 -0.356610 -4.173522 167 123 116
8.789850 -1.348159 -4.059930 176 124 112
8.789850 -1.348159 -4.059930 176 124 112
8.821664 -1.799104 -4.034495 194 192 198
8.794649 -1.717306 -4.040879 125 117 134
8.828443 -1.773229 -4.048489 120 112 129
8.828443 -1.773229 -4.048489 120 112 129
8.818452 -1.886130 -4.036996 191 190 192
8.840219 -0.589432 -4.157396 252 208 195
8.769223 -1.685131 -4.045021 243 202 187
8.807628 -1.099777 -4.112883 240 198 185
8.807628 -1.099777 -4.112883 240 198 185
8.882417 1.073485 -4.337789 247 204 187
8.793788 -1.757843 -4.067089 220 210 210
8.827274 -1.841720 -4.075729 83 76 113
8.832484 1.427803 -4.366627 222 186 176
8.839444 -1.148772 -4.154947 170 131 122
8.839444 -1.148772 -4.154947 170 131 122
8.839651 -1.972673 -4.084115 157 117 119
8.827745 -1.904560 -4.094720 208 202 203
8.836319 -1.814269 -4.118044 203 201 201
8.832815 0.743900 -4.352474 155 116 108
8.721054 -1.895990 -4.087475 196 179 182
8.858164 0.742427 -4.362253 155 116 108
8.867210 -1.105282 -4.207630 216 178 166
8.815181 -1.787288 -4.132542 171 174 182
8.829314 1.450767 -4.422687 155 120 116
8.824779 0.156900 -4.313685 212 177 164
8.981623 -0.339029 -4.448896 247 206 191
8.992476 -0.140252 -4.487259 233 194 179
9.016676 0.239539 -4.565232 180 137 128
8.976408 -0.661042 -4.478213 171 129 124
8.961052 -0.109382 -4.527900 166 121 117
9.006978 0.401178 -4.618551 208 173 159
9.105209 -3.663955 -4.364192 242 200 188
9.136983 -2.019084 -4.536181 242 197 184
9.119986 -1.869936 -4.545781 200 197 199
9.192556 0.147015 -4.765309 160 119 110
9.173723 -1.154988 -4.655891 237 195 182
9.173198 -1.008090 -4.669828 229 187 175
9.173198 -1.008090 -4.669828 229 187 175
9.262010 1.411537 -4.913314 150 118 113
9.173850 -0.095966 -4.756167 251 208 193
9.196713 1.013697 -4.870014 240 197 180
9.173877 -3.278511 -4.510968 187 147 149
9.190382 0.666388 -4.857526 219 184 170
9.174290 -3.538613 -4.490581 184 143 150
9.158936 -3.650508 -4.476052 181 143 149
9.188488 1.366628 -4.919818 213 178 168
9.176690 -2.503731 -4.589988 182 145 149
9.184870 0.480235 -4.865789 176 130 123
9.196483 1.032262 -4.919849 172 126 119
9.152186 0.141523 -4.839365 162 122 117
9.162951 -0.102156 -4.824171 247 204 187
9.161952 0.999675 -4.935185 237 197 178
9.296288 -1.885017 -4.754048 201 194 199
9.350575 0.943647 -5.113086 151 115 107
9.336826 -0.396738 -4.992795 247 201 184
9.332404 -0.196427 -5.028252 227 188 174
9.330681 0.353807 -5.087571 224 183 174
9.359448 -3.633620 -4.769693 212 159 149
9.319990 -3.641376 -4.769296 255 214 193
9.333476 0.930762 -5.191911 147 110 106
9.372882 -3.637760 -4.816793 218 169 153
9.374281 -3.637807 -4.817385 218 169 153
9.404504 -1.010009 -5.065653 170 125 114
9.458526 -0.734938 -5.110591 166 124 112
9.403687 -1.375021 -5.036124 231 191 179
9.556365 -1.306247 -5.103146 190 151 136
9.459596 -0.460469 -5.158196 156 114 109
9.449846 -1.307301 -5.087087 202 165 151
9.444761 -2.309572 -5.004435 232 189 180
9.430917 0.100560 -5.209974 157 118 109
9.446086 0.372149 -5.242891 152 111 102
9.467087 0.645900 -5.274308 151 111 106
9.385567 -5.250350 -4.746958 117 76 91
9.491204 -1.355047 -5.124207 161 115 107
9.491204 -1.355047 -5.124207 161 115 107
9.395326 -1.398880 -5.086905 165 117 111
9.395326 -1.398880 -5.086905 165 117 111
9.382616 -1.164513 -5.103450 248 204 187
9.487026 -1.266189 -5.140182 159 120 112
9.417718 -2.335169 -5.028468 107 69 87
9.429011 -4.988682 -4.823259 253 210 191
9.453545 -2.090159 -5.082987 249 206 191
9.562574 0.288429 -5.330913 229 190 175
9.449170 -4.376078 -4.891228 173 125 113
9.470039 0.893456 -5.352959 220 181 166
9.532145 0.552871 -5.351548 224 186 174
9.510800 1.352154 -5.416064 152 118 112
9.443612 -4.955489 -4.851542 207 158 144
9.374828 -1.336948 -5.138949 210 165 154
9.470477 -1.297022 -5.186027 227 187 169
9.491572 -4.265915 -4.957269 162 129 133
9.470600 0.789127 -5.389129 174 158 189
9.517075 -0.967092 -5.263627 119 96 111
9.498234 -4.970091 -4.921441 255 214 192
9.498234 -4.970091 -4.921441 255 214 192
9.664947 -0.626602 -5.364280 132 93 91
9.625320 -1.207079 -5.300967 249 202 188
9.645757 -0.293567 -5.389694 89 52 60
9.561269 -0.953990 -5.301552 130 108 127
9.736008 -2.513006 -5.242431 246 206 194
9.736008 -2.513006 -5.242431 246 206 194
9.497747 -4.324733 -4.997430 197 159 154
9.559095 0.973520 -5.475446 167 122 118
9.694635 -2.468904 -5.233183 254 213 204
9.514668 0.941486 -5.478702 225 186 171
9.430727 -2.040303 -5.194500 187 142 129
9.538897 -4.564713 -5.022287 248 203 192
9.585358 -1.432901 -5.308986 165 118 110
9.562341 -4.385639 -5.057081 175 136 134
9.562137 -2.092262 -5.253170 233 188 175
9.873724 -3.831246 -5.224776 155 98 83
9.782817 -3.654231 -5.216595 221 165 148
9.594780 -1.477768 -5.330782 245 202 187
9.568450 -4.517530 -5.067254 165 131 132
9.848403 -3.860729 -5.234703 233 193 174
9.571529 -5.002751 -5.034001 248 199 183
9.571529 -5.002751 -5.034001 248 199 183
9.573113 -4.560761 -5.073162 166 136 147
9.545033 -4.792310 -5.043502 185 136 122
9.669172 -4.745288 -5.096964 219 177 170
9.863955 -4.119886 -5.231541 55 31 33
9.598873 -2.097448 -5.305394 237 194 179
9.598873 -2.097448 -5.305394 237 194 179
9.603499 -4.522867 -5.100218 206 174 175
9.552706 -5.136748 -5.029722 237 193 176
9.834275 0.096652 -5.589728 99 65 49
9.836738 -0.047558 -5.580003 93 61 50
9.805989 -4.029460 -5.235854 114 77 69
9.623698 -4.683727 -5.110590 239 193 185
9.598230 -4.514842 -5.119143 176 133 124
9.456537 1.722477 -5.599932 30 21 24
9.588907 -5.003811 -5.076866 248 204 187
9.570261 -4.784646 -5.089372 243 202 179
9.633747 -1.264673 -5.417441 239 194 180
9.660538 -2.107016 -5.363293 227 185 172
9.660538 -2.107016 -5.363293 227 185 172
9.674825 -1.305903 -5.441401 185 136 126
9.851359 -2.513536 -5.409744 228 182 171
9.663892 0.877266 -5.630680 210 174 168
9.618105 -4.610662 -5.158655 225 189 183
9.810246 -4.052925 -5.282635 246 207 192
9.810246 -4.052925 -5.282635 246 207 192
9.668373 -1.406897 -5.456351 177 128 120
9.661648 -4.361269 -5.211485 247 203 186
9.672772 -4.364947 -5.216175 247 203 186
9.814898 -3.585491 -5.339014 255 223 210
9.651453 -4.711730 -5.183721 234 195 181
9.666971 -1.437344 -5.474225 231 186 172
9.629503 -5.222474 -5.139864 173 129 130
9.882885 0.382460 -5.716992 229 183 166
9.693933 -1.327706 -5.509366 218 177 162
9.806845 -4.092171 -5.321459 76 28 40
9.693101 -4.313070 -5.259699 174 125 115
9.776433 -3.781184 -5.342794 186 130 119
9.698469 -4.801597 -5.225355 187 135 123
9.679443 -1.481375 -5.502522 177 132 119
9.666097 -4.741174 -5.223387 192 142 130
9.682839 -1.292653 -5.525195 162 110 103
9.903031 -2.585152 -5.518599 168 116 109
9.751766 -1.161180 -5.581563 164 121 112
9.933569 -3.043004 -5.495585 248 206 194
9.933569 -3.043004 -5.495585 248 206 194
9.699965 -4.458812 -5.285075 239 194 180
9.929143 0.025445 -5.758312 119 53 54
9.920140 -0.084834 -5.747170 119 66 75
9.560415 1.606941 -5.753668 40 27 35
9.931355 -3.857191 -5.440719 237 193 176
