ply
format ascii 1.0
element vertex 1227
property float x
property float y
property float z
property uchar blue
property uchar green
property uchar red
end_header
-0.844244 -1.939291 1.910442 159 160 120
-0.661265 0.584948 0.481570 113 115 79
-0.772208 -1.273595 1.464654 133 127 84
-0.738367 -0.437348 1.051793 182 172 125
-0.759630 -3.206972 2.166808 22 22 22
-0.856755 -1.905300 1.898933 102 90 78
-0.778970 -1.327945 1.484606 155 148 105
-0.778970 -1.327945 1.484606 155 148 105
-0.758029 -0.783332 1.215537 53 51 33
-0.578065 2.389919 -0.447962 198 191 141
-0.496036 -0.562712 0.487200 42 40 29
-0.589129 2.296435 -0.387016 194 185 142
-0.609786 2.128567 -0.275409 178 172 89
-0.759938 -0.724367 1.180805 149 146 101
-0.710621 0.318543 0.652756 34 34 28
-0.758188 -0.541933 1.094585 145 138 83
-0.624195 2.039821 -0.220299 120 117 32
-0.688154 1.962787 -0.039805 145 133 69
-0.497680 -0.588750 0.466254 121 115 110
-0.690108 1.982810 -0.049462 149 136 68
-0.854517 -2.203568 1.943741 156 147 114
-0.600364 2.323726 -0.400701 115 118 26
-0.758843 -0.407926 1.021300 177 175 117
-0.872606 -1.699834 1.786312 37 33 28
-0.806708 -1.315638 1.468358 101 86 67
-0.705834 0.530346 0.513141 22 20 12
-0.790108 -0.916496 1.264773 131 127 103
-0.855675 -1.893621 1.791134 30 24 17
-0.773312 -0.515417 1.068273 90 84 65
-0.728759 0.393961 0.603623 85 84 70
-0.720947 0.447287 0.560669 47 44 23
-0.713560 1.907397 -0.011637 169 166 75
-0.885310 -2.182993 1.937525 63 54 34
-0.786869 -0.619626 1.108151 63 53 35
-0.635591 2.217295 -0.331368 127 134 53
-0.874210 -1.949474 1.805298 141 135 94
-0.837725 -1.409246 1.510636 30 28 20
-0.844568 -2.964561 2.103786 128 117 85
-0.725145 0.571669 0.486263 166 159 96
-0.740859 1.317967 0.244909 118 142 142
-0.892337 -2.208794 1.925983 210 207 132
-0.846727 -3.001704 2.109584 74 64 30
-0.874724 -1.896475 1.764604 44 30 18
-0.744816 0.389691 0.587932 128 131 109
-0.844067 -1.261320 1.436536 35 31 30
-0.799259 -0.478197 1.031330 130 131 97
-0.877099 -1.737811 1.682852 148 137 93
-0.803133 -0.380144 0.981447 153 146 121
-0.818814 -0.526421 1.071372 48 42 31
-0.784715 -3.230878 1.987744 171 152 117
-0.896464 -2.413282 1.953729 53 51 41
-0.749859 1.980007 -0.029617 43 42 21
-0.899864 -2.145447 1.856275 49 41 34
-0.899649 -2.356138 1.932197 26 20 15
-0.665258 2.260082 -0.346990 171 170 160
-0.763463 0.427848 0.566888 153 160 117
-0.905703 -1.855851 1.754503 73 65 48
-0.812225 -0.398549 0.988538 130 126 98
-0.892129 -1.585506 1.619208 125 115 85
-0.718858 2.067781 -0.151544 130 144 156
-0.689190 2.097892 -0.235296 142 142 128
-0.780597 0.330905 0.634557 51 50 46
-0.770364 0.417323 0.575226 26 28 9
-0.770364 0.417323 0.575226 26 28 9
-0.854126 1.723659 0.297994 20 26 39
-0.893761 -3.062343 2.145658 23 15 16
-0.911795 -1.906903 1.751932 48 38 14
-0.887744 -1.263073 1.455167 35 27 20
-0.876940 -0.975403 1.316240 156 143 99
-0.896047 -3.070612 2.127108 158 144 125
-0.676654 2.357875 -0.392761 97 99 100
-0.678869 2.308403 -0.370857 97 98 102
-0.916926 -2.096744 1.815190 36 38 26
-0.898486 -1.299357 1.475622 61 52 42
-0.688809 2.300071 -0.350083 108 108 114
-0.921355 -2.018515 1.791699 184 169 107
-0.926097 -2.042031 1.803299 191 185 140
-0.707802 2.176852 -0.268641 80 83 91
-0.692781 2.379640 -0.390828 168 172 177
-0.864785 -0.489274 1.062619 178 167 105
-0.907397 -1.158093 1.408522 168 155 109
-0.890558 -0.826090 1.246798 159 145 103
-0.911775 -1.114881 1.397987 174 160 111
-0.917946 -1.583004 1.580247 187 175 117
-0.930242 -1.659082 1.635690 158 140 81
-0.933128 -2.009163 1.762853 158 151 101
-0.681213 2.509353 -0.491318 143 156 164
-0.874495 -3.429648 2.104540 255 255 226
-0.643916 2.945511 -0.748632 126 129 133
-0.936220 -2.048218 1.750817 65 62 18
-0.936220 -2.048218 1.750817 65 62 18
-0.821306 0.379266 0.599416 179 171 111
-0.804905 1.320322 0.215499 44 70 94
-0.810993 1.950521 0.004473 174 164 80
-0.878865 -3.498522 2.116593 51 26 40
-0.729760 2.150144 -0.269515 19 26 35
-0.659274 2.927245 -0.722128 195 195 195
-1.061609 -2.850835 2.328148 186 177 114
-0.930803 -2.309081 1.803349 35 26 13
-0.941128 -2.066349 1.732317 209 198 138
-0.751200 2.127898 -0.231645 99 115 122
-0.752611 2.130488 -0.230065 99 115 122
-0.911299 -0.457893 1.076227 140 123 67
-0.812817 1.974239 -0.038855 62 63 31
-0.637351 3.286370 -0.936221 156 158 158
-0.907067 -3.382881 2.078778 255 255 254
-0.739543 2.177187 -0.298371 51 57 64
-0.843627 0.404181 0.577000 42 35 26
-0.843627 0.404181 0.577000 42 35 26
-0.850913 0.444596 0.542783 46 36 26
-0.854728 0.488849 0.518736 55 47 48
-0.960665 -2.300814 1.746300 29 20 11
-0.853338 0.544249 0.481961 59 55 36
-0.915340 -0.371870 0.947105 13 11 11
-0.844953 0.666992 0.406580 93 86 36
-0.975484 -2.339747 1.762432 20 18 8
-0.712520 2.931008 -0.705971 109 115 122
-0.851726 1.946809 -0.029471 50 48 14
-0.851726 1.946809 -0.029471 50 48 14
-0.665624 3.632018 -1.071002 164 169 170
-1.138329 -2.837770 2.316137 109 97 61
-0.686327 3.530404 -1.002523 165 167 167
-0.853926 2.029165 -0.078206 46 45 47
-0.966144 -1.430355 1.366727 128 116 76
-0.830664 0.974546 0.210218 124 125 109
-0.861163 0.695696 0.378221 73 62 18
-0.751764 2.356637 -0.459028 26 29 44
-0.863404 2.041800 -0.083925 55 58 62
-0.788769 2.203303 -0.329744 87 93 100
-0.924935 1.811109 0.138883 153 163 150
-0.697732 3.628796 -1.042619 106 111 96
-0.767055 2.266257 -0.410178 104 111 120
-0.755857 2.394898 -0.484863 33 40 49
-0.755857 2.394898 -0.484863 33 40 49
-0.866053 2.095182 -0.110766 161 159 158
-0.875883 1.921739 -0.028132 180 168 90
-0.814913 2.144511 -0.255463 11 17 22
-0.814913 2.144511 -0.255463 11 17 22
-0.910444 0.402267 0.565915 80 85 70
-0.885789 0.639485 0.417433 180 175 106
-0.996081 -2.234636 1.655233 47 40 21
-0.996081 -2.234636 1.655233 47 40 21
-0.774895 2.297916 -0.430217 40 48 55
-0.888607 0.652961 0.398904 139 149 96
-0.958762 1.759318 0.202634 26 32 37
-1.003709 -2.182252 1.627380 193 180 104
-0.745521 2.761760 -0.670271 155 159 164
-1.001807 -2.248494 1.638912 148 144 93
-0.880478 0.771926 0.324340 167 159 99
-1.191559 -2.831932 2.284824 93 83 43
-1.038426 -2.435765 1.770603 211 205 134
-0.889323 2.037286 -0.088598 64 67 71
-0.916156 0.520306 0.477793 50 51 49
-0.961381 -0.981455 1.086974 50 39 17
-1.033194 -2.379829 1.723743 83 71 35
-1.033194 -2.379829 1.723743 83 71 35
-0.959063 -0.862397 1.016127 51 43 30
-0.974391 -1.016270 1.098926 135 124 67
-1.017438 -1.389987 1.322935 212 196 149
-0.873135 2.105794 -0.186084 115 120 118
-0.963345 -0.408158 0.863970 173 179 144
-0.977526 -0.981892 1.087106 149 133 80
-0.917946 1.969994 -0.033987 45 50 29
-0.843505 2.133907 -0.275196 41 47 54
-0.881474 1.007412 0.182224 85 81 80
-0.881474 1.007412 0.182224 85 81 80
-0.741100 3.696302 -1.064007 140 149 139
-1.032402 -1.849926 1.467890 217 209 149
-1.016881 -1.599292 1.337219 181 170 113
-1.035776 -1.730980 1.410819 172 159 97
-0.860830 2.156116 -0.290091 134 138 143
-0.878765 2.149611 -0.252754 125 129 118
-1.073988 -2.534606 1.720218 173 183 123
-1.147638 -3.369390 2.168717 134 127 84
-1.158201 -3.433514 2.213875 209 196 134
-0.951131 1.963550 -0.031523 146 149 100
-1.026281 -1.377075 1.212761 187 181 114
-1.147413 -3.353543 2.141195 118 107 79
-0.874726 2.163003 -0.304829 51 53 31
-0.874726 2.163003 -0.304829 51 53 31
-0.961797 1.785501 0.032180 68 70 34
-1.160516 -3.543844 2.221316 145 125 47
-1.172974 -3.380616 2.174721 66 42 20
-1.172974 -3.380616 2.174721 66 42 20
-1.081980 -2.619500 1.702623 60 47 31
-1.039262 -1.981694 1.390321 104 95 68
-1.088508 -2.636059 1.718978 113 109 31
-1.050152 -2.013492 1.417519 44 33 19
-1.016268 -0.732164 0.928158 99 97 89
-1.016870 -0.771774 0.942086 166 157 113
-1.177382 -3.456604 2.185569 132 120 80
-0.984478 0.056885 0.583563 62 72 79
-0.845659 2.198853 -0.448963 188 191 195
-0.983256 0.140780 0.539054 176 186 156
-1.089780 -2.659861 1.677415 226 220 197
-1.063121 -2.007177 1.398171 169 160 87
-1.033247 -0.729117 0.922260 168 160 120
-1.033247 -0.729117 0.922260 168 160 120
-1.024378 -0.486934 0.798384 176 178 148
-1.072415 -1.352206 1.181736 47 35 29
-1.001234 0.046034 0.562253 179 174 111
-0.999743 1.961486 -0.041778 158 154 119
-1.076796 -1.186105 1.111986 153 147 100
-0.998236 1.971826 -0.061461 52 52 38
-0.847548 2.186321 -0.510012 161 165 166
-0.847548 2.186321 -0.510012 161 165 166
-0.980079 2.031431 -0.149234 89 89 49
-1.026771 0.085213 0.549333 67 68 36
-1.010850 0.179905 0.476006 28 27 13
-1.100338 -1.253687 1.129811 76 60 53
-1.034397 0.079200 0.555581 218 211 148
-0.985130 0.467690 0.313077 110 110 92
-0.985130 0.467690 0.313077 110 110 92
-1.106210 -1.234906 1.108707 200 183 134
-1.075124 -0.775129 0.883244 196 192 139
-1.012782 1.787592 -0.040023 38 41 25
-0.986032 0.533700 0.258190 19 15 14
-1.033029 0.431854 0.366880 20 11 0
-1.104724 -0.846787 0.914824 137 120 71
-1.118649 -1.045643 1.005574 70 52 29
-1.122542 -1.024899 0.991977 76 55 23
-1.144883 -2.020246 1.329606 108 105 61
-1.091897 -0.439986 0.720660 207 207 161
-0.962271 2.034483 -0.326805 170 171 169
-1.033290 0.552014 0.281853 31 32 23
-1.058414 0.290810 0.415957 168 160 130
-1.058414 0.290810 0.415957 168 160 130
-1.098078 1.794598 0.066541 32 41 45
-1.050755 0.536587 0.282880 21 19 19
-1.078249 0.339675 0.377727 127 130 104
-0.857988 3.453017 -1.067361 147 151 152
-1.078748 0.354246 0.370538 57 47 30
-1.138042 1.797517 0.112473 88 94 83
-1.067644 0.549447 0.275091 167 160 133
-1.180392 -1.937515 1.262601 191 180 120
-1.147902 1.758441 0.136927 86 115 130
-1.104846 0.235244 0.434320 36 38 16
-1.092021 0.415993 0.345132 190 187 132
-1.078138 0.605981 0.253950 208 199 156
-1.150935 -0.746143 0.816568 108 94 66
-1.137634 1.762616 0.069850 113 148 168
-1.101964 0.443779 0.331634 187 193 136
-1.127446 0.224680 0.456463 57 46 24
-1.161729 -0.744731 0.806178 214 198 151
-1.203573 -1.925292 1.229427 168 157 100
-1.158772 -0.458122 0.703802 195 201 170
-1.088890 0.629261 0.215156 207 196 139
-1.122818 0.390135 0.351776 95 69 23
-1.094482 0.622983 0.184694 195 191 140
-1.133199 0.359706 0.332178 212 197 148
-1.133199 0.359706 0.332178 212 197 148
-1.131862 0.487805 0.288941 209 213 177
-1.139807 0.427196 0.324801 164 153 95
-1.120763 0.538895 0.233080 26 24 14
-1.141327 0.372967 0.326364 227 206 155
-1.100114 0.589607 0.146298 38 34 29
-1.271866 -2.150882 1.307557 206 199 149
-1.231927 -1.857799 1.124305 100 89 37
-1.231927 -1.857799 1.124305 100 89 37
-1.142452 0.507563 0.262535 37 44 23
-1.113464 0.537377 0.175213 69 57 33
-1.113464 0.537377 0.175213 69 57 33
-1.142707 0.470357 0.261730 66 63 49
-1.137599 0.227131 0.300904 112 105 85
-1.144033 0.449719 0.250054 54 46 9
-1.151029 0.344100 0.293422 118 109 66
-1.287299 -2.116898 1.283290 148 140 87
-1.116186 0.571174 0.139211 247 247 199
-1.111899 0.582515 0.120880 255 255 244
-1.143713 0.513514 0.191986 101 88 66
-1.185464 -1.723545 0.871771 141 130 73
-1.146418 0.236214 0.268118 68 57 43
-1.137542 0.511777 0.174355 81 88 61
-1.241847 -1.734262 1.000657 97 89 49
-1.206555 -1.720765 0.834433 71 61 21
-1.291545 -1.780958 1.015267 86 81 36
-1.259036 -0.989616 0.718081 255 255 255
-1.259036 -0.989616 0.718081 255 255 255
-1.289536 -1.716584 0.898426 61 55 20
-1.245879 -1.691202 0.760738 32 25 16
-1.245879 -1.691202 0.760738 32 25 16
-1.323153 -1.747142 0.926139 202 193 136
-1.339485 -1.836483 0.982947 211 204 141
-1.333152 -1.747270 0.921030 207 194 132
-1.391573 -1.953109 1.000170 178 171 116
-1.394153 -1.745248 0.908326 86 84 50
-1.397418 -1.733877 0.799835 104 96 79
-1.252746 -1.689884 0.396589 255 255 255
-1.294114 -1.673218 0.455694 252 251 253
-1.413284 -1.721232 0.776076 180 164 117
-1.431638 -1.767070 0.774751 188 177 120
-1.463468 -1.831663 0.826389 161 157 104
-1.464081 -1.793307 0.791590 72 65 26
-1.469646 -1.808963 0.802957 192 189 144
-1.449727 -1.703393 0.633342 83 69 51
-1.468067 -1.699268 0.662496 186 172 119
-1.455034 -1.659061 0.558878 160 143 80
-1.370281 -1.562542 0.228262 255 252 253
-1.453660 -1.652597 0.430629 132 122 68
-1.473436 -1.447371 0.360872 42 31 17
-1.510877 -1.728792 0.505572 183 178 115
-1.509255 -1.740478 0.461277 193 185 126
-1.480380 -1.443465 0.325675 97 92 67
-1.480380 -1.443465 0.325675 97 92 67
-1.515508 -1.767383 0.458743 117 103 45
-1.579491 -1.801320 0.631158 255 255 255
-1.423904 -1.542640 0.107287 255 255 255
-1.534515 -1.559092 0.356160 102 86 33
-1.573607 -1.600138 0.347728 125 105 40
-1.488527 -1.503533 0.098491 86 71 62
-1.488527 -1.503533 0.098491 86 71 62
1.117036 3.652908 -0.772280 103 105 106
1.117036 3.652908 -0.772280 103 105 106
1.145900 1.701829 0.637136 137 127 120
1.154671 1.709106 0.608604 255 252 230
1.061507 3.654466 -0.732002 114 112 112
1.133206 1.714605 0.615025 62 44 27
1.129938 1.704151 0.608829 56 53 55
1.107029 1.713013 0.624956 185 187 187
1.037675 3.674361 -0.751051 88 88 94
1.036861 3.707809 -0.776781 157 159 160
1.036861 3.707809 -0.776781 157 159 160
1.034393 3.609050 -0.711089 73 76 80
1.116065 1.728185 0.529519 255 247 206
1.014892 3.523222 -0.678677 83 83 89
1.092753 1.744799 0.515614 44 36 13
1.087320 1.742259 0.525701 145 145 151
1.011089 3.507962 -0.674918 71 72 76
1.038878 1.702393 0.620357 160 157 153
1.065581 1.709373 0.562369 118 116 115
1.021703 1.719038 0.613614 178 180 181
0.991602 3.674318 -0.799484 111 114 112
1.080981 1.791633 0.444381 33 31 30
0.989646 3.547593 -0.719826 98 102 103
0.989646 3.547593 -0.719826 98 102 103
0.989354 3.682157 -0.821508 87 88 86
1.013449 1.739945 0.563302 109 108 110
1.013449 1.739945 0.563302 109 108 110
1.050157 1.787942 0.418886 41 43 43
0.971621 3.458120 -0.692466 173 176 180
0.968917 1.726047 0.549915 129 130 126
0.968917 1.726047 0.549915 129 130 126
0.959357 3.438101 -0.703819 181 183 183
0.987580 1.745442 0.482480 149 147 139
0.958759 3.417563 -0.699895 178 182 183
0.947663 3.499846 -0.743014 166 169 173
1.025364 1.944808 0.263880 76 73 58
0.941326 3.590351 -0.804554 107 110 118
0.955009 3.293292 -0.616305 116 121 124
0.955009 3.293292 -0.616305 116 121 124
1.020752 1.883397 0.293130 252 238 239
1.011986 1.907645 0.282575 143 135 128
0.931949 3.648917 -0.863852 100 106 105
0.933077 3.472285 -0.758864 165 168 166
0.986672 1.997736 0.211411 163 157 158
0.925502 1.741635 0.483981 41 43 43
0.905611 3.611490 -0.851085 125 128 133
1.019605 2.958944 -0.563394 255 246 234
0.963325 1.919081 0.267553 107 111 106
0.951061 1.959778 0.250670 33 34 32
0.909565 3.615312 -0.872790 81 82 86
0.749454 3.686895 -0.682020 73 77 82
0.749454 3.686895 -0.682020 73 77 82
0.957280 2.887680 -0.435182 109 121 127
0.962987 2.080479 0.123633 141 146 144
0.958222 2.104462 0.103142 115 120 118
0.839131 1.742557 0.538594 110 118 111
0.839131 1.742557 0.538594 110 118 111
0.930029 1.948321 0.244747 22 27 30
0.952580 2.706594 -0.339597 48 50 60
0.847930 1.759253 0.494996 135 140 138
0.847930 1.759253 0.494996 135 140 138
0.861256 1.757698 0.471292 122 124 112
0.942702 2.689815 -0.322802 168 173 182
0.961191 2.583616 -0.280577 66 68 69
0.906968 1.970576 0.236553 77 90 98
0.950988 2.595206 -0.284668 180 185 184
0.988878 2.121584 -0.009435 255 245 243
0.894484 3.230899 -0.650285 105 111 110
0.894484 3.230899 -0.650285 105 111 110
0.944867 2.098207 0.061410 36 40 41
0.862364 2.044741 0.224084 115 124 133
0.924005 2.828052 -0.428975 137 141 146
0.972650 2.156871 -0.034509 255 254 242
0.923745 2.738604 -0.370429 137 138 142
0.883129 3.592626 -0.913377 124 126 127
0.813738 1.783372 0.476424 125 126 117
0.884270 2.003741 0.209057 138 142 147
0.962822 2.421673 -0.212557 164 159 160
0.922967 2.769256 -0.397152 163 166 170
0.962166 2.152192 -0.027293 138 119 58
0.884840 1.811870 0.333534 92 94 72
0.772181 1.720542 0.573585 166 170 164
0.926301 2.097620 0.061352 32 39 42
0.812924 1.806448 0.441226 112 109 104
0.924182 2.712976 -0.380735 32 37 40
0.859804 1.939316 0.261072 69 75 80
0.879095 1.801640 0.325839 88 91 69
0.792963 1.761349 0.487562 139 142 133
0.934444 2.193151 -0.045788 65 74 78
0.782507 1.750894 0.502744 95 101 100
0.834765 2.016951 0.230161 32 36 41
0.905679 2.773842 -0.416536 90 98 111
0.739262 1.736059 0.576866 165 171 166
0.926686 2.389540 -0.180306 47 50 54
0.840505 2.143158 0.127825 114 138 156
0.840505 2.143158 0.127825 114 138 156
0.946925 2.276023 -0.134633 255 251 245
0.923575 2.204279 -0.050465 44 53 62
0.772900 1.766439 0.489949 117 120 111
0.934862 2.255055 -0.113762 255 249 227
0.920881 2.694272 -0.404221 52 60 67
0.914253 2.401268 -0.194618 158 161 166
0.912937 2.402874 -0.194052 158 161 166
0.910016 2.586973 -0.321491 59 68 78
0.841630 2.128104 0.105533 11 14 22
0.839583 2.025304 0.177522 149 159 176
0.839583 2.025304 0.177522 149 159 176
0.829766 2.069106 0.153438 42 48 55
0.833171 2.121096 0.110769 108 132 156
0.822180 2.080051 0.134637 19 32 46
0.888797 2.438549 -0.222106 95 105 122
0.893133 2.473353 -0.257241 21 30 43
0.840002 2.738868 -0.366400 182 181 183
0.822617 2.111353 0.096977 118 134 151
0.782863 2.000594 0.230883 59 76 85
0.850760 2.674172 -0.347183 173 174 178
0.878036 2.236398 -0.086514 132 138 157
0.876622 2.180072 -0.045738 31 34 42
0.876194 2.234718 -0.083285 132 138 149
0.808613 2.107748 0.110385 120 131 135
0.881943 2.373010 -0.196457 40 48 65
0.884504 2.307039 -0.155544 143 151 158
0.849819 2.173770 -0.039619 153 158 157
0.849819 2.173770 -0.039619 153 158 157
0.835696 3.598797 -1.007182 163 162 164
0.843440 2.226319 -0.077638 21 29 36
0.819269 2.948415 -0.562515 114 113 115
0.819269 2.948415 -0.562515 114 113 115
0.799390 2.019812 0.108259 63 69 76
0.805244 2.073910 0.059008 133 136 144
0.811692 2.265788 -0.083945 156 168 168
0.808495 2.254158 -0.072990 143 152 156
0.755074 1.959387 0.215388 46 52 57
0.744120 1.952892 0.217117 136 141 139
0.733041 1.927483 0.251233 138 139 113
0.791678 2.120480 0.019514 143 154 162
0.740007 1.936877 0.225599 150 154 148
0.740007 1.936877 0.225599 150 154 148
0.787202 2.069805 0.051374 157 157 157
0.730338 1.949073 0.214940 32 33 37
0.784809 2.112224 0.009065 94 105 113
0.660636 1.764572 0.439810 127 131 125
0.628863 1.779128 0.441647 150 147 139
0.639253 1.780596 0.410949 148 147 137
0.705611 1.946724 0.188704 17 19 19
0.687847 1.953534 0.209961 23 26 30
0.686893 1.954048 0.184453 118 121 119
0.554305 1.730523 0.543640 154 161 154
0.746817 1.944232 0.079809 53 59 64
0.546061 1.723626 0.538440 168 175 168
0.669157 1.940017 0.189112 97 95 64
0.732526 1.946012 0.065822 120 123 127
0.732526 1.946012 0.065822 120 123 127
0.728250 2.212285 -0.110186 129 134 143
0.636995 1.907707 0.222929 143 142 104
0.697997 1.953549 0.052710 67 72 71
0.694104 2.072703 -0.055184 147 153 158
0.637898 1.987655 0.052042 119 122 90
0.567343 1.943534 0.187582 54 65 33
0.654275 1.947780 0.041366 51 57 26
0.629411 2.000346 0.035261 132 132 114
0.579000 1.987474 0.123478 84 89 50
0.622622 3.592251 -1.068731 128 126 125
0.611504 2.050530 -0.065475 168 165 167
0.600789 2.026212 -0.047482 117 119 83
0.600789 2.026212 -0.047482 117 119 83
0.364886 1.729800 0.510742 155 157 138
0.405213 1.758192 0.421001 114 121 124
0.560332 1.987731 0.009826 137 141 76
0.585635 2.182681 -0.161141 185 186 184
0.568462 1.143959 0.530352 169 168 110
0.559382 3.554644 -1.058141 191 193 194
0.391363 1.801824 0.339672 33 40 35
0.403012 1.810176 0.286700 48 50 30
0.493839 1.129969 0.525142 136 139 100
0.388667 1.836539 0.241176 98 96 48
0.856165 -1.982781 1.871158 161 149 91
0.305038 1.757113 0.403116 98 116 115
0.377086 1.808489 0.246469 71 75 50
0.458835 1.133064 0.531081 51 51 45
0.796578 -1.905310 1.870437 48 34 16
0.806540 -1.807496 1.785855 81 68 54
0.497930 3.402415 -0.998657 178 176 166
0.353659 1.927940 0.133823 43 51 34
0.466333 3.049606 -0.781224 72 65 38
0.466333 3.049606 -0.781224 72 65 38
0.366476 1.245016 0.467887 124 133 120
0.442084 2.041956 -0.158507 76 75 41
0.379059 1.138784 0.503466 113 124 86
0.413680 2.110026 -0.170054 172 163 89
0.366724 1.155813 0.490319 54 61 46
0.322561 1.447115 0.376034 101 127 91
1.048828 -0.406031 0.281922 255 255 255
0.212978 1.701583 0.340671 9 29 40
0.313622 1.969836 0.001194 82 75 26
0.523474 -0.381384 1.068422 124 114 74
0.386917 3.406929 -1.026216 124 121 117
0.386917 3.406929 -1.026216 124 121 117
0.095272 1.769170 0.467562 30 43 45
0.296069 1.136485 0.505857 53 55 55
0.529119 -1.496016 1.705766 57 46 26
0.455525 -0.294551 1.080417 171 175 150
0.551880 -2.131096 2.015976 179 166 98
0.504890 -1.678901 1.818036 45 37 20
0.504890 -1.678901 1.818036 45 37 20
0.520195 -1.485071 1.656025 124 112 76
0.261919 1.151494 0.494201 56 56 56
0.496226 -1.812297 1.892133 96 79 40
0.554119 -1.404794 1.532229 85 82 68
0.499646 -1.569558 1.710214 127 120 71
0.213494 1.389605 0.387643 90 105 73
0.440146 -2.289259 2.208579 255 254 255
0.423291 -0.622015 1.230448 68 56 38
0.189118 1.451225 0.373070 74 98 64
0.490953 -1.504903 1.634882 103 100 79
0.589522 -0.200851 0.673042 246 244 244
0.387062 -0.302900 1.077234 62 53 44
0.576538 -0.207167 0.694777 43 38 35
0.576538 -0.207167 0.694777 43 38 35
0.462902 -1.979303 1.948997 176 167 103
0.377088 -0.307193 1.090314 70 64 53
0.494088 -1.490091 1.595542 86 89 73
0.166330 1.467148 0.374248 127 153 129
0.457085 -1.997022 1.945071 68 61 22
0.457085 -1.997022 1.945071 68 61 22
0.564902 -0.369384 0.781445 52 44 37
0.554821 -0.390519 0.794616 54 47 30
0.364714 -0.688200 1.293766 111 103 50
0.435103 -1.946475 1.922096 174 165 122
0.198273 1.131938 0.484048 53 53 59
0.001145 1.723122 0.457804 64 82 89
0.415237 -1.686804 1.769574 57 48 21
0.182473 1.140571 0.470433 100 106 105
0.356843 -2.076169 2.066959 36 29 14
0.334211 -2.156200 2.151939 189 184 121
0.562258 -0.228855 0.618981 38 26 8
0.212059 2.097214 -0.158917 63 66 10
0.394229 -1.711168 1.779968 64 56 33
0.092118 1.917070 0.149409 118 112 41
0.337316 -1.999943 2.031268 62 54 37
0.322033 -0.798147 1.346642 192 181 119
0.337728 -2.027151 2.044154 42 35 16
0.365260 -1.817191 1.870371 82 69 23
0.586259 -0.244769 0.561545 43 37 24
0.315928 -0.871829 1.381412 57 46 42
0.300875 -0.339880 1.090689 63 46 43
0.309189 -0.931951 1.424469 202 189 111
0.311774 -0.917699 1.409872 48 33 24
0.094056 1.888954 0.129998 124 110 38
0.577817 -0.232582 0.547598 255 255 255
0.315317 -1.989573 2.033444 115 110 89
0.307854 -0.955839 1.421772 78 56 20
0.244514 3.268966 -0.953961 150 140 133
0.244514 3.268966 -0.953961 150 140 133
0.316847 -2.280965 2.163411 197 186 134
0.330663 -1.702801 1.789475 44 35 26
0.228821 -1.973730 2.114212 186 170 124
0.302472 -0.493929 1.119713 125 122 84
0.297541 -0.870161 1.344864 141 125 83
0.089107 1.444464 0.349295 127 150 128
0.294308 -1.492174 1.705497 60 51 42
0.298605 -0.727650 1.250126 92 83 70
0.283947 -1.000073 1.394341 90 85 64
0.263100 -1.505727 1.720226 147 139 86
0.243980 -0.219299 1.004362 12 10 9
0.291168 -0.629920 1.159520 103 97 90
0.260262 -1.660048 1.801957 131 128 100
0.514542 -0.266984 0.529841 255 255 255
0.264793 -2.356431 2.168107 46 40 33
0.013409 1.948660 0.108062 155 146 72
0.259979 -0.573257 1.130436 52 44 37
0.149518 -1.901961 2.089418 207 196 114
0.179718 3.341601 -1.014215 182 179 174
-0.006365 1.919080 0.118957 181 169 91
0.171135 3.333354 -1.013511 93 87 82
0.119500 -1.894579 2.074792 201 190 122
0.156188 -0.413175 1.133644 159 147 105
0.157774 3.334531 -1.014376 188 182 171
0.162839 -1.347261 1.652085 53 44 35
0.103981 -1.890115 2.063106 207 199 129
0.143995 -1.473350 1.718283 156 145 101
0.367906 -0.257867 0.635150 38 34 33
0.367906 -0.257867 0.635150 38 34 33
0.003463 1.178909 0.446374 29 34 35
0.140584 3.323291 -1.013371 117 108 104
0.082130 -1.912787 2.056870 204 192 120
0.082130 -1.912787 2.056870 204 192 120
0.702773 -0.161644 -0.025092 152 140 100
-0.117920 1.822679 0.280041 91 114 99
0.122501 -1.152697 1.539214 121 121 85
0.701158 -0.130185 -0.052301 43 37 30
0.344983 -0.254966 0.640356 28 24 29
0.129624 3.309505 -1.003936 184 178 171
0.120132 -1.468893 1.716090 32 26 3
0.105727 -1.095528 1.516529 50 42 35
0.117767 -1.490486 1.716083 30 23 14
0.689778 -0.189879 -0.027561 43 35 22
0.035076 -1.843889 2.047387 185 175 111
0.116124 -1.417687 1.662958 39 34 25
0.677682 -0.220509 -0.002283 130 118 90
0.669837 -0.151713 -0.030558 149 147 117
0.112920 3.332643 -1.019461 187 185 167
0.120294 -0.520841 1.132051 44 39 30
0.676338 -0.198496 -0.024975 121 118 97
0.112192 3.380462 -1.051730 95 87 64
0.112192 3.380462 -1.051730 95 87 64
0.106679 3.363601 -1.041877 190 189 175
0.666018 -0.494539 0.136315 144 132 108
-0.048144 1.352681 0.350030 132 151 118
0.669524 -0.202746 -0.036527 36 31 16
0.079317 -1.212894 1.564389 50 44 37
0.655244 -0.151456 -0.041411 61 54 35
0.098842 3.358454 -1.038235 185 184 180
0.065572 -0.381869 1.113633 35 28 8
0.089856 -1.384656 1.629479 99 98 84
0.639872 -0.396626 0.104242 111 110 90
-0.053626 -0.014822 1.106222 210 194 151
0.068302 -1.167065 1.520999 37 35 25
0.081481 -1.382913 1.616481 30 28 18
0.635475 -0.152847 -0.044844 67 57 39
0.039363 -0.975880 1.458917 54 46 39
-0.068426 1.240255 0.405477 63 100 90
0.626368 -0.223210 -0.007652 30 27 22
-0.035982 1.964430 -0.066285 61 60 10
-0.035982 1.964430 -0.066285 61 60 10
0.606247 -0.368455 0.100365 34 32 31
0.615834 -0.229541 -0.000423 102 98 74
0.611516 -0.302463 0.045651 27 24 20
0.611516 -0.302463 0.045651 27 24 20
0.013389 -0.975224 1.467246 154 153 133
0.616583 -0.165480 -0.046871 127 124 80
0.613674 -0.251792 0.003101 66 58 28
0.013427 -0.914212 1.423908 35 32 28
0.602558 -0.290448 0.040088 26 22 21
-0.197122 1.837739 0.266605 27 35 34
0.047927 -1.319175 1.582046 47 46 32
0.035075 -1.247158 1.555868 118 120 101
0.028425 -1.208578 1.542955 155 157 127
0.595732 -0.262265 0.016321 47 45 27
0.588102 -0.248054 0.003882 105 102 64
-0.109432 1.440654 0.301795 136 167 160
-0.272562 1.756156 0.412859 29 38 52
0.595204 -0.609514 0.184387 134 127 110
0.026604 -1.330982 1.580614 43 40 32
0.578229 -0.521359 0.160256 29 27 27
0.594668 -0.193154 -0.050953 20 18 17
0.568138 -0.383050 0.095642 54 55 46
0.578796 -0.557336 0.167731 36 29 26
0.557494 -0.508835 0.152496 69 66 62
0.557494 -0.508835 0.152496 69 66 62
0.581589 -0.175331 -0.076169 24 22 14
0.571381 -0.209741 -0.044962 20 18 18
0.571381 -0.209741 -0.044962 20 18 18
-0.234419 1.820834 0.260156 84 106 104
-0.042679 -1.116986 1.528625 122 117 92
0.010628 3.079005 -0.871899 70 63 44
0.569006 -0.193051 -0.083168 96 96 60
-0.306761 1.740399 0.408752 84 104 109
-0.306761 1.740399 0.408752 84 104 109
0.567025 -0.170764 -0.098126 34 28 15
0.555740 -0.218094 -0.072593 102 100 70
-0.007599 3.074525 -0.871436 106 87 54
0.540341 -0.257848 -0.033706 93 89 64
-0.319233 1.734684 0.406767 27 45 46
-0.319233 1.734684 0.406767 27 45 46
-0.172807 1.410104 0.315184 155 167 149
0.527587 -0.274153 -0.020958 77 73 55
-0.015224 3.079825 -0.876655 180 170 122
-0.182385 -1.813775 2.068140 192 179 105
0.532579 -0.262671 -0.044307 39 36 21
-0.218785 1.938926 0.096689 180 170 86
-0.282286 1.844757 0.258112 20 27 30
-0.330627 1.734046 0.403441 113 129 135
-0.192543 1.456165 0.308057 113 134 119
-0.303322 1.774568 0.322783 13 16 20
-0.148329 -0.258015 1.145091 48 59 57
-0.338451 1.743631 0.396853 33 44 52
-0.127632 -1.478318 1.760926 139 142 110
0.536558 -0.211677 -0.104980 157 146 116
-0.152710 -0.209495 1.111041 26 38 40
-0.036864 3.005515 -0.828550 132 125 75
-0.033017 3.088808 -0.882902 194 182 146
-0.186582 -1.855082 2.052781 176 156 91
-0.324845 1.747303 0.353055 96 109 111
-0.159318 -0.494470 1.255094 155 142 104
-0.308258 1.806105 0.270456 99 123 113
-0.186612 -1.750990 1.953477 42 36 23
-0.145570 -1.221314 1.589400 117 115 97
-0.185439 -0.608847 1.326074 168 156 120
0.516157 -0.263773 -0.118619 130 112 65
-0.207713 -2.014854 2.099473 56 41 15
-0.282988 1.856432 0.164653 88 100 52
-0.205971 -2.053809 2.111426 49 38 0
-0.173505 -1.443636 1.720232 33 30 26
-0.341942 1.772799 0.307048 79 90 88
-0.248439 1.466138 0.301122 177 179 160
0.480326 -0.373441 -0.030155 53 46 21
-0.336268 1.798085 0.271101 107 118 108
-0.337187 1.810309 0.261277 116 124 113
-0.241332 -0.143142 1.109767 17 27 34
-0.287167 1.825917 0.143723 83 90 45
-0.221245 -0.824532 1.428958 137 135 111
-0.279028 1.952555 0.059980 128 137 81
-0.270584 -0.080862 1.104699 100 114 120
-0.235842 -0.866594 1.455220 176 167 130
-0.230143 -2.246990 2.160093 92 80 40
-0.383380 1.782170 0.306123 62 79 92
-0.281529 1.793414 0.111025 23 23 7
-0.218884 -2.528710 2.250323 184 178 113
-0.260270 -1.191215 1.621854 47 38 28
-0.323881 -0.098168 1.139222 51 46 37
-0.326620 -0.092837 1.140368 51 46 37
-0.106730 3.583078 -1.180902 159 161 142
-0.105214 3.346346 -1.065206 115 101 82
-0.328750 -0.426946 1.302972 52 44 27
-0.258655 -2.268004 2.135128 192 186 133
-0.307356 -0.015376 1.029518 14 14 14
0.409324 -0.702513 0.092434 19 16 12
0.409324 -0.702513 0.092434 19 16 12
0.406512 -0.723792 0.106439 78 76 65
-0.339859 -0.610301 1.393726 95 84 57
-0.342395 -0.516177 1.345731 187 177 130
-0.293510 -2.210766 2.130857 60 53 36
0.426852 -0.514390 -0.063258 184 165 128
0.406319 -0.692785 0.030591 53 43 25
-0.279174 1.961665 -0.099309 109 114 69
-0.271289 -3.028040 2.422217 113 102 88
-0.379123 -0.931566 1.540854 188 174 121
-0.233234 -3.116557 2.393839 33 23 16
-0.397201 1.820966 0.158020 31 39 22
-0.466498 -1.557967 2.010391 217 208 140
-0.435642 -1.780595 2.066562 215 205 151
-0.268596 -3.067085 2.409301 51 42 32
-0.398448 -0.056948 1.099125 64 66 54
-0.398448 -0.056948 1.099125 64 66 54
-0.263309 -3.090641 2.393770 95 85 75
-0.399093 -1.170397 1.647474 161 142 107
-0.402342 -1.195494 1.663253 56 46 39
-0.073178 -3.420928 2.183900 54 42 38
-0.170915 3.533333 -1.195195 182 182 152
-0.433127 -0.727074 1.424472 168 163 118
-0.483959 -1.625822 1.967236 191 184 115
-0.438965 -0.761124 1.439716 94 81 49
-0.409382 -0.160543 1.065156 191 172 121
-0.413518 -0.177733 1.075912 57 41 5
-0.422397 -0.246426 1.125106 52 39 1
-0.441483 -0.820324 1.441933 50 42 35
-0.473279 -1.683174 1.924989 166 168 102
-0.451884 -0.943436 1.513004 196 183 131
-0.431116 -0.236821 1.113439 164 153 103
-0.439615 -0.471468 1.244471 168 153 107
-0.439615 -0.471468 1.244471 168 153 107
-0.474802 -1.815247 1.978513 154 158 106
-0.474622 -1.749082 1.942409 164 167 105
-0.196438 3.519591 -1.207331 106 107 73
-0.453639 -2.103913 2.072428 52 49 44
-0.453639 -2.103913 2.072428 52 49 44
-0.483447 -1.710891 1.922187 89 85 61
-0.483447 -1.710891 1.922187 89 85 61
-0.417584 -0.180158 1.035180 52 38 26
-0.454385 1.815444 0.096911 29 25 14
-0.459290 -2.222838 2.096516 46 41 43
-0.422253 -0.157894 1.001202 163 150 94
-0.540505 1.758952 0.265431 68 83 92
-0.458259 -2.265439 2.101277 37 30 11
-0.489176 -2.793584 2.419073 67 62 41
-0.439957 -0.053095 0.969123 103 110 95
-0.233616 3.662510 -1.251270 162 167 152
-0.472242 -1.160981 1.562118 163 150 88
-0.459133 -0.726877 1.319324 149 142 93
-0.456437 -0.710130 1.302980 156 144 90
-0.479459 -1.137530 1.552341 65 54 26
-0.241132 3.567571 -1.211867 162 164 158
-0.532573 -2.050045 2.070061 188 183 120
-0.488774 -1.189145 1.558859 137 135 77
-0.486025 -1.184548 1.538580 178 177 121
-0.274532 0.579199 0.281200 115 113 103
-0.268735 3.577226 -1.206725 174 177 175
-0.496859 -1.208637 1.552937 157 159 113
-0.450173 -2.604167 2.135020 32 27 26
-0.538482 -2.086645 2.040175 191 193 133
-0.268867 3.654672 -1.257355 84 85 81
-0.353971 0.214688 0.573647 86 88 66
-0.508119 -1.196093 1.541369 50 43 23
-0.458483 -2.572185 2.118775 151 146 121
-0.467394 -0.415648 1.080256 145 135 95
-0.382635 2.073012 -0.289595 75 75 15
-0.598008 1.761008 0.257475 74 85 89
-0.497265 1.354814 0.269044 62 82 69
-0.349950 0.318534 0.498605 122 120 90
-0.349950 0.318534 0.498605 122 120 90
-0.518744 -1.205096 1.542637 139 139 123
-0.475624 -2.561446 2.106492 43 34 25
-0.584201 1.802041 0.180932 17 28 26
-0.566491 -2.134740 2.047938 153 154 110
-0.559354 1.949089 0.043526 176 160 84
-0.596428 -1.917591 1.965905 159 162 113
-0.623630 1.767077 0.243467 11 22 26
-0.581368 -2.135959 2.041881 167 165 131
-0.618486 -1.596627 1.849074 91 88 73
-0.404831 -0.211652 0.780380 50 50 44
-0.404831 -0.211652 0.780380 50 50 44
-0.585557 -2.122044 2.028051 58 50 33
-0.628348 1.751302 0.246466 75 92 95
-0.400094 0.195420 0.552022 18 13 12
-0.427511 2.099568 -0.312329 165 155 68
-0.428870 2.269871 -0.397530 133 130 45
-0.553755 1.341179 0.276479 159 172 164
-0.320457 3.566193 -1.220041 103 109 108
-0.419390 -0.010661 0.665226 12 7 4
-0.453437 2.099449 -0.278540 67 66 5
-0.608602 -2.114991 2.017116 57 47 37
-0.567400 -0.134205 0.989513 114 114 100
-0.426821 0.003592 0.657738 145 144 118
-0.426821 0.003592 0.657738 145 144 118
-0.423497 0.191775 0.559287 77 75 65
-0.423497 0.191775 0.559287 77 75 65
-0.553494 1.873323 -0.005053 178 160 83
-0.695042 -1.412719 1.816935 22 21 17
-0.573207 1.278594 0.307256 75 102 99
-0.529898 -2.680486 2.100575 39 33 34
-0.633296 -2.121440 2.020324 150 142 125
-0.581161 -0.159492 0.989949 114 117 85
-0.581161 -0.159492 0.989949 114 117 85
-0.543611 -2.562594 2.051692 127 122 113
-0.575912 1.313400 0.277820 130 158 152
-0.461167 0.059100 0.653721 145 144 124
-0.461167 0.059100 0.653721 145 144 124
-0.727995 -1.491306 1.845591 67 62 53
-0.731200 -1.512037 1.855547 162 159 128
-0.633636 -0.919408 1.394453 172 158 106
-0.654566 -2.175899 2.012727 31 26 23
-0.655826 -2.181090 2.017034 35 30 29
-0.473901 -0.027477 0.656205 38 30 17
-0.641414 -0.903511 1.363681 156 150 105
-0.471235 -0.015318 0.628270 26 22 21
-0.472016 -0.063826 0.649001 85 80 55
-0.656082 -0.953201 1.398225 54 50 32
-0.633907 1.966953 -0.009835 115 113 65
-0.633907 1.966953 -0.009835 115 113 65
-0.475555 -0.003950 0.604975 90 85 70
-0.661026 -0.917496 1.374726 122 119 81
-0.607304 -2.650320 2.078291 154 159 120
-0.645961 -3.318128 2.458961 107 95 47
-0.680778 -2.149125 1.981344 156 151 126
-0.671183 -1.085529 1.457857 33 27 20
-0.687905 -0.319153 1.132910 51 48 17
-0.687905 -0.319153 1.132910 51 48 17
-0.643241 1.919945 0.011919 184 167 81
-0.658313 -0.343620 1.082945 118 124 89
-0.687463 -0.759815 1.327612 47 43 32
-0.572034 0.597253 0.478908 118 125 110
-0.618884 -3.073449 2.255919 57 55 47
-0.785678 -1.460774 1.822930 69 60 51
-0.583841 0.572775 0.500162 145 145 133
-0.660428 1.391430 0.249463 57 92 105
-0.660428 1.391430 0.249463 57 92 105
-0.799053 1.764809 0.332567 18 27 37
-0.663949 1.273985 0.301115 43 66 88
-0.663949 1.273985 0.301115 43 66 88
-0.508949 -0.089838 0.633982 11 5 0
-0.796362 1.726720 0.333410 48 81 96
-0.672307 2.009782 -0.035341 127 123 65
-0.626536 -2.788171 2.070166 151 150 122
-0.681074 -0.162428 0.970083 89 82 55
-0.699799 -3.357378 2.465146 133 143 73
-0.743902 -0.977833 1.450036 198 185 129
-0.535183 -0.060345 0.631825 93 93 81
-0.742899 -2.129363 1.963757 48 38 38
-0.737750 -0.842116 1.361135 44 39 30
-0.740384 -0.903897 1.385673 45 36 22
-0.690149 -0.378985 1.045465 35 33 33
-0.618730 0.635045 0.449815 98 100 71
-0.618730 0.635045 0.449815 98 100 71
-0.578359 2.215296 -0.345025 121 116 47
-0.736424 -0.829404 1.333641 41 41 35
-0.554876 2.457571 -0.501339 143 141 63
-0.650037 -2.734979 2.032927 127 124 63
-0.650037 -2.734979 2.032927 127 124 63
-0.691181 1.991064 -0.038680 101 92 28
-0.722757 -0.532103 1.163044 160 144 108
-0.838197 -1.631757 1.857864 117 111 74
-0.563440 2.566553 -0.558895 187 186 176
-0.719760 1.981365 -0.007261 66 62 11
-0.741450 -0.891574 1.323099 113 106 81
-0.715628 1.213084 0.325730 101 134 143
-0.715628 1.213084 0.325730 101 134 143
-0.597182 2.359320 -0.420665 117 122 30
-0.507791 3.254697 -0.992699 181 176 177
-0.590269 2.437340 -0.473755 127 126 38
-0.588246 2.496667 -0.505601 147 149 83
-0.516420 3.197791 -0.961285 143 140 136
-0.737544 -0.453736 1.089067 43 32 34
-0.597274 2.405935 -0.458154 147 148 56
-0.750291 -0.916789 1.317033 50 41 38
-0.750291 -0.916789 1.317033 50 41 38
-0.858070 1.739168 0.328365 72 84 86
-0.692694 0.343174 0.637102 40 37 22
-0.609917 2.324747 -0.405906 133 137 55
-0.817140 -2.228345 2.020162 24 21 16
-0.485633 3.612028 -1.219512 121 123 117
-0.817604 1.770081 0.229989 52 62 69
-0.751399 -3.340048 2.384971 38 44 39
-0.751399 -3.340048 2.384971 38 44 39
-0.788421 -1.350423 1.566885 36 29 10
-0.611209 2.368650 -0.431621 114 118 43
-0.568997 2.862287 -0.737847 145 143 142
-0.811128 -1.424681 1.627802 157 144 122
-0.659616 0.773396 0.358495 67 61 32
-0.674494 0.622179 0.452801 148 152 93
-0.770030 -1.238353 1.459553 147 135 101
-0.440391 -0.507023 0.506957 57 55 54
-0.808849 -2.215593 1.960970 121 119 101
-0.741000 1.993292 -0.045204 83 88 67
-0.723783 -0.269784 0.920204 33 33 27
-0.762450 -0.734705 1.198340 31 28 14
-0.772373 -0.920867 1.295382 46 47 27
-0.654140 2.197569 -0.312940 115 112 37
-0.773591 -0.948842 1.300640 92 92 78
-0.680996 2.220230 -0.277728 136 128 45
-0.752303 -0.362356 0.995463 68 65 61
-0.701573 0.576251 0.472866 155 152 108
-0.779759 -0.862610 1.255104 84 83 79
-0.762666 -2.635217 2.003103 148 146 115
-0.760943 1.314259 0.256362 152 174 169
-0.721663 2.106605 -0.174578 162 162 168
-0.866108 -2.106017 1.945876 50 42 42
-0.786846 -0.687235 1.152823 43 39 28
-0.745570 2.100969 -0.151483 63 72 82
-0.786214 -0.797051 1.192760 97 98 94
-0.893766 1.776063 0.268752 57 72 75
-0.727965 0.599607 0.466704 163 157 104
-0.792004 -0.860715 1.225349 27 26 22
-0.741312 0.493830 0.536521 140 141 115
-0.684774 2.387145 -0.401036 107 107 113
-0.685503 2.387941 -0.400243 107 107 113
-0.770234 -2.978317 2.100620 111 107 66
-0.770234 -2.978317 2.100620 111 107 66
-0.770234 -2.978317 2.100620 111 107 66
-0.703311 -0.254686 0.782763 60 57 53
-0.889766 -2.010955 1.903716 218 215 160
-0.583814 3.507957 -1.088057 161 167 178
-0.754923 0.407961 0.583779 26 28 9
-0.772603 1.332931 0.214739 41 71 90
-0.772603 1.332931 0.214739 41 71 90
-0.798958 -0.667453 1.131981 41 42 32
-0.724667 2.119226 -0.222744 37 42 45
-0.677405 2.560498 -0.508064 155 163 170
-0.616409 3.272628 -0.935536 175 178 182
-0.861595 -1.442427 1.578775 27 24 20
-0.660110 2.799506 -0.649737 199 197 197
-0.660110 2.799506 -0.649737 199 197 197
-0.659119 2.812581 -0.658098 196 198 206
-0.866473 -1.607263 1.649675 31 26 23
-0.595249 3.510458 -1.090689 29 38 52
-0.753959 0.533792 0.500015 169 166 111
-0.775159 0.361001 0.613885 50 45 42
-0.664081 2.775016 -0.646271 196 193 195
-0.817588 -3.176135 2.217970 118 118 102
-0.875908 -2.045814 1.839751 52 46 23
-0.771909 1.951012 -0.088614 26 32 31
-0.628630 3.277237 -0.937122 37 44 53
-0.809263 1.439023 0.200739 71 103 114
-0.626600 3.687640 -1.120063 153 158 157
-0.745262 2.122956 -0.221086 98 107 116
-0.745262 2.122956 -0.221086 98 107 116
-0.662805 2.941531 -0.732314 188 187 189
-0.759490 -3.059685 2.037400 117 108 70
-0.630044 3.618579 -1.091928 173 175 169
-0.791407 2.040540 -0.103167 82 86 91
-0.634777 3.365695 -0.976356 178 177 181
-0.625538 3.692041 -1.134875 45 49 43
-0.885761 1.843599 0.157652 32 43 35
-0.887958 -2.054783 1.838153 141 131 97
-0.782753 0.467123 0.545994 117 121 85
-0.748029 2.141474 -0.241095 18 30 36
-0.748029 2.141474 -0.241095 18 30 36
-0.884393 -2.134566 1.858143 92 86 67
-0.812697 2.117968 -0.109890 156 165 169
-0.628760 3.525316 -1.068548 162 164 165
-0.890262 -1.689280 1.666981 166 151 105
-0.892140 -2.029879 1.813803 57 48 21
-0.523341 -0.656440 0.515390 72 70 62
-0.841988 -0.582747 1.093361 138 130 83
-0.801923 -3.012718 2.056677 130 120 80
-0.864729 -3.120002 2.220615 32 29 21
-0.897945 -1.897925 1.756605 46 34 16
-0.714294 2.367125 -0.426982 59 65 78
-0.748940 2.163722 -0.276256 24 24 30
-0.708791 2.392160 -0.453329 29 38 48
-0.708791 2.392160 -0.453329 29 38 48
-0.850982 -2.989152 2.112308 68 56 28
-0.651030 3.715538 -1.132992 86 91 82
-0.666450 3.393579 -0.968914 97 102 101
-0.672699 3.440648 -0.978541 175 176 174
-0.851798 1.977054 -0.014625 160 152 92
-0.821423 1.994987 -0.081207 15 19 20
-0.821423 1.994987 -0.081207 15 19 20
-0.667054 3.558080 -1.046223 38 43 46
-0.824794 0.337502 0.623136 146 151 120
-0.722521 2.369479 -0.438322 124 130 135
-0.877997 -0.368195 1.023817 168 165 104
-0.877997 -0.368195 1.023817 168 165 104
-0.921236 -1.946182 1.774797 187 173 114
-0.725151 2.253320 -0.386216 124 134 144
-0.921941 -1.706890 1.673527 179 162 105
-0.719109 2.333791 -0.432609 164 165 169
-0.819526 2.134239 -0.155758 80 93 101
-0.934368 1.730457 0.235411 52 60 67
-0.902948 -1.016979 1.340556 188 174 121
-0.729958 2.265945 -0.386309 143 150 167
-0.775612 2.151458 -0.250258 97 107 117
-0.775612 2.151458 -0.250258 97 107 117
-0.924893 -1.729113 1.682536 185 167 108
-0.682010 3.449615 -0.982721 85 89 83
-0.914685 -1.165462 1.420762 168 155 111
-0.687989 3.509251 -1.002518 54 59 57
-0.864897 1.828027 0.049239 104 99 54
-0.687407 3.583034 -1.036257 53 53 39
-0.853611 1.941567 -0.022132 140 143 57
-0.847643 2.154422 -0.129470 22 28 33
-0.679823 3.757530 -1.130369 164 165 149
-0.841247 0.314093 0.635719 147 151 109
-0.725848 2.396840 -0.467107 23 32 46
-0.725848 2.396840 -0.467107 23 32 46
-0.920787 -2.362028 1.916738 35 28 13
-0.930082 1.780925 0.182700 91 109 102
-0.918378 -1.024401 1.340875 123 106 50
-0.915121 -0.297492 1.025628 193 185 132
-0.741933 2.408554 -0.451169 112 121 148
-0.921462 -2.180477 1.829370 204 201 133
-0.690468 3.099638 -0.843074 207 209 210
-0.925293 -1.953842 1.738539 96 84 56
-0.857180 2.035014 -0.074392 31 34 38
-0.723916 2.374340 -0.476024 111 118 138
-0.908533 -0.466117 1.074351 133 117 58
-0.722743 2.411908 -0.496178 159 164 165
-0.727446 2.396141 -0.480727 103 114 128
-0.725914 2.358902 -0.468202 127 133 140
-0.705915 3.606429 -1.032000 74 76 57
-0.727069 2.408098 -0.487207 43 51 64
-0.785229 2.163823 -0.276397 40 49 59
-0.880861 -3.077726 2.110081 62 48 30
-0.735427 2.356387 -0.461250 51 61 68
-0.711873 2.835737 -0.716808 93 105 123
-0.720816 3.609044 -1.025478 162 164 142
-0.939060 1.817885 0.142867 141 155 143
-0.727431 2.493057 -0.548607 164 170 175
-1.066061 -2.834743 2.330011 194 179 123
-0.747039 2.295293 -0.431386 140 147 150
-0.841343 0.547092 0.478529 140 134 99
-0.746186 2.418672 -0.487477 152 158 163
-0.725602 3.600647 -1.022223 52 55 39
-0.865524 0.372142 0.596082 152 150 115
-0.877969 2.044408 -0.078553 102 114 124
-0.949032 -1.684897 1.611436 87 69 22
-0.754399 2.350226 -0.448697 108 116 129
-0.874966 2.094145 -0.110708 138 140 140
-0.787463 2.191542 -0.324279 45 59 65
-0.871053 0.387905 0.585131 54 46 9
-0.871053 0.387905 0.585131 54 46 9
-0.732094 3.672491 -1.051184 85 97 91
-0.739975 2.499076 -0.549454 50 56 63
-0.741288 2.520951 -0.556133 114 116 126
-0.741288 2.520951 -0.556133 114 116 126
-0.726950 2.742368 -0.677346 69 74 89
-0.955376 -0.863585 1.262482 155 140 68
-0.863503 0.432605 0.545442 45 42 28
-0.901083 1.966916 -0.022346 40 41 7
-0.752795 2.468182 -0.519771 107 117 127
-0.752795 2.468182 -0.519771 107 117 127
-0.954894 1.826265 0.135753 32 41 38
-0.864106 0.513240 0.504422 116 115 87
-0.780851 2.259815 -0.384299 32 39 42
-0.764936 2.304066 -0.434725 116 121 122
-0.756533 3.474419 -0.939390 199 195 170
-0.772421 2.331025 -0.436144 68 70 80
-0.764837 2.394350 -0.477792 154 167 181
-0.776337 2.280566 -0.415162 59 64 67
-0.797337 2.236275 -0.356695 49 52 56
-0.740230 3.809698 -1.119448 132 136 117
-0.738048 3.832351 -1.133039 74 80 69
-0.738048 3.832351 -1.133039 74 80 69
-0.764384 2.399724 -0.491527 163 166 171
-0.798120 2.256585 -0.372819 105 115 122
-0.926392 -1.814102 1.554905 116 99 36
-0.903086 2.037982 -0.080511 146 148 126
-0.770552 2.458650 -0.511190 165 167 168
-0.842470 2.127449 -0.238103 109 114 117
-0.741867 2.894269 -0.749821 169 170 174
-0.976239 1.762580 0.166146 98 110 98
-0.877756 0.516913 0.486196 173 171 107
-0.925586 -1.404563 1.364651 103 92 62
-0.765810 2.751183 -0.653963 63 70 79
-0.814334 2.253104 -0.355441 146 147 143
-0.901568 0.379780 0.582287 171 181 135
-0.517802 -0.866084 0.349413 152 142 125
-0.762228 2.868618 -0.714925 183 183 183
-0.778800 2.583749 -0.566109 179 176 178
-0.908139 2.047021 -0.095801 152 155 130
-0.828955 0.864952 0.235247 158 154 106
-0.891426 0.505944 0.502105 181 179 121
-0.891426 0.505944 0.502105 181 179 121
-0.740285 2.949265 -0.797918 100 108 125
-0.823681 2.267876 -0.359112 62 70 70
-0.775239 2.848437 -0.693209 187 186 182
-0.963379 -2.365886 1.804858 108 101 68
-0.775180 2.740947 -0.653640 174 176 177
-0.864530 2.114186 -0.227030 34 38 33
-0.857466 0.878591 0.261535 150 150 110
-0.780953 2.707853 -0.634509 174 172 171
-0.729811 2.988641 -0.848855 169 173 178
-0.795352 2.450457 -0.502610 168 171 176
-0.870552 0.746532 0.338292 165 156 99
-0.726731 2.878891 -0.812234 129 138 148
-0.790545 2.555282 -0.556453 103 104 108
-0.788173 2.579003 -0.572494 62 63 61
-0.582429 -0.842901 0.423581 63 59 40
-0.934831 -1.343895 1.311963 130 113 70
-0.882165 -3.534305 2.103196 255 250 255
-0.749025 2.940515 -0.798120 147 156 165
-0.913606 1.997441 -0.098532 32 35 10
-0.893795 0.609398 0.427772 39 41 19
-0.965880 -1.547416 1.445637 72 59 37
-0.961057 -2.331009 1.754849 122 117 92
-0.743808 2.956377 -0.823621 153 156 160
-0.771663 3.853076 -1.136499 194 185 152
-0.861536 0.923905 0.225929 42 43 39
-0.862266 0.924726 0.226778 42 43 39
-0.970619 -2.123972 1.673779 227 218 131
-0.874946 0.854909 0.275105 89 90 64
-0.770595 2.898836 -0.759571 109 115 122
-0.973097 -0.483107 1.005576 215 191 149
-0.811411 2.316846 -0.444646 119 119 119
-0.797216 2.593657 -0.584750 51 52 32
-0.974462 -1.574434 1.448116 175 155 90
-0.893566 0.660439 0.384653 38 42 30
-1.144952 -2.774153 2.265290 24 24 18
-0.873760 0.894714 0.248391 38 33 24
-0.946925 -1.320174 1.287934 54 41 15
-0.771215 3.809682 -1.132418 190 184 147
-0.987224 -2.365237 1.788530 45 30 27
-0.802287 2.569404 -0.570467 96 96 78
-0.906974 2.101148 -0.177262 105 107 85
-0.740404 2.969567 -0.853081 25 35 52
-0.740404 2.969567 -0.853081 25 35 52
-0.820682 2.282238 -0.421101 164 166 147
-0.796860 2.705841 -0.640990 53 57 38
-0.796860 2.705841 -0.640990 53 57 38
-0.777536 2.900693 -0.759023 99 103 108
-0.798064 2.723890 -0.647931 169 167 149
-0.946354 -1.234052 1.239421 75 56 19
-0.946354 -1.234052 1.239421 75 56 19
-0.778880 3.845146 -1.139670 56 54 46
-0.779814 3.828870 -1.131993 187 182 157
-0.935932 -1.122370 1.167956 51 38 12
-0.764563 2.943605 -0.807595 40 52 70
-0.796895 2.834649 -0.701842 161 167 132
-0.766338 2.931657 -0.800852 153 156 161
-0.853693 2.209521 -0.341063 112 111 77
-0.744871 3.025949 -0.884336 32 50 61
-0.784125 3.822305 -1.129197 168 161 128
-0.784125 3.822305 -1.129197 168 161 128
-0.886478 0.833968 0.272619 154 164 141
-0.954383 1.995674 -0.064181 106 106 58
-1.178018 -2.856613 2.325796 197 186 128
-0.806807 3.701127 -1.040387 186 183 152
-0.945052 -1.131642 1.174729 117 105 63
-0.811013 2.614943 -0.596289 115 115 75
-0.811013 2.614943 -0.596289 115 115 75
-0.789034 3.847136 -1.138048 47 55 45
-0.990000 -2.166790 1.668305 30 24 19
-0.773723 2.941777 -0.806755 175 179 180
-0.804781 2.727811 -0.662720 192 192 180
-0.979447 -2.236558 1.670355 95 89 76
-0.820166 2.306664 -0.464985 175 175 169
-0.922221 2.103351 -0.187276 123 123 83
-0.855965 2.266480 -0.385140 68 74 63
-0.963954 -1.157339 1.193526 74 63 31
-1.012137 -2.435912 1.799482 33 25 8
-0.813780 2.242886 -0.462041 195 192 187
-0.960749 2.014294 -0.084473 121 121 67
-0.983200 1.970227 -0.025972 165 156 92
-0.814266 2.288524 -0.484558 169 174 173
-1.213602 -2.907240 2.366723 129 111 48
-0.959015 -1.054163 1.128128 54 46 23
-1.190016 -2.805543 2.276360 72 68 39
-0.787491 2.915612 -0.794922 104 109 107
-0.755215 3.040876 -0.910171 193 191 191
-0.959073 -1.031042 1.112350 45 37 20
-1.195679 -2.818285 2.287356 89 83 42
-0.794127 3.808804 -1.141884 44 44 14
-0.794127 3.808804 -1.141884 44 44 14
-0.821463 2.283136 -0.481936 61 73 77
-0.821463 2.283136 -0.481936 61 73 77
-0.991631 -2.203418 1.633982 176 174 120
-0.819383 2.729428 -0.673671 87 91 56
-0.819383 2.729428 -0.673671 87 91 56
-0.816880 2.271798 -0.499630 70 76 81
-0.972811 -1.069475 1.130278 147 136 86
-0.998784 -1.729779 1.440767 193 183 119
-0.795786 2.918367 -0.808603 205 202 198
-0.801215 3.802986 -1.148609 191 187 146
-0.801215 3.802986 -1.148609 191 187 146
-0.964814 -0.587156 0.910240 47 41 34
-1.064881 1.819139 0.150640 115 135 122
-0.779896 2.955338 -0.859248 191 189 189
-0.828757 2.729060 -0.675346 171 173 153
-0.828757 2.729060 -0.675346 171 173 153
-0.966398 2.027267 -0.129553 73 73 19
-0.764719 3.069668 -0.938846 123 127 122
-0.826612 2.698929 -0.673472 169 167 166
-0.950400 -0.740072 0.927168 123 121 111
-0.772777 3.016021 -0.906519 54 61 54
-0.772777 3.016021 -0.906519 54 61 54
-0.996494 1.799826 0.011203 100 103 58
