ply
format ascii 1.0
element vertex 1226
property float x
property float y
property float z
property uchar blue
property uchar green
property uchar red
end_header
-0.205978 2.778243 -1.068065 116 118 112
-0.263767 2.355094 -0.783975 204 195 158
-0.447699 0.995084 0.139342 120 152 151
-0.560479 0.800737 0.186892 62 73 71
-0.523519 0.843881 0.194106 80 84 95
-0.070567 1.470944 0.182523 72 78 83
-0.363153 2.185097 -0.699725 177 171 112
-0.268249 1.517045 -0.044415 107 103 55
-0.372045 1.663363 -0.275317 132 131 73
-0.536959 0.885652 0.182482 64 85 86
-0.349238 2.334858 -0.793292 174 172 102
-0.431078 1.679913 -0.345540 85 81 23
-0.389430 2.009813 -0.568260 173 174 82
-0.538857 0.904918 0.179132 122 148 148
-0.375810 2.154931 -0.661836 179 176 101
-0.135006 1.459405 0.167529 83 91 91
-0.273867 1.626380 -0.116623 167 169 117
-0.148126 1.514520 0.121255 54 58 52
-0.341605 2.513772 -0.903075 112 116 97
-0.341605 2.513772 -0.903075 112 116 97
-0.452955 1.684599 -0.344058 153 139 57
-0.354847 2.400929 -0.822833 185 185 171
-0.383437 2.206007 -0.687686 141 134 85
-0.347230 2.480071 -0.870647 176 177 167
-0.435930 1.904938 -0.489707 194 182 146
-0.324411 2.723179 -1.039532 123 126 117
-0.429776 1.941141 -0.510835 180 170 130
-0.429776 1.941141 -0.510835 180 170 130
-0.152552 1.473921 0.170315 86 93 96
-0.271084 1.656512 -0.103361 171 175 110
-0.271084 1.656512 -0.103361 171 175 110
-0.334929 2.646523 -0.977710 180 178 170
-0.383966 2.379150 -0.803897 121 119 118
-0.383966 2.379150 -0.803897 121 119 118
-0.309503 1.621526 -0.095858 178 176 106
-0.452449 1.994165 -0.546534 133 136 50
-0.452449 1.994165 -0.546534 133 136 50
-0.511252 1.768629 -0.384257 156 154 123
-0.413539 1.588255 -0.127110 163 148 86
-0.514556 1.842787 -0.427631 154 155 146
-0.525142 1.872056 -0.439220 141 143 144
-0.510067 1.944178 -0.479274 137 142 145
-0.482530 2.230625 -0.679454 157 160 164
-0.518264 1.977941 -0.499181 68 70 71
-0.500859 1.652302 -0.199458 129 126 65
-0.548460 1.701619 -0.290444 69 71 71
-0.545211 2.033444 -0.547546 141 146 145
-0.567482 1.690634 -0.284416 58 60 60
-0.560746 1.799299 -0.367435 36 40 45
-0.570465 1.850012 -0.405923 24 21 23
-0.612407 1.841118 -0.430709 108 108 114
-0.399598 3.103285 -1.256412 96 99 103
-0.366998 3.336291 -1.415796 124 129 128
-0.599387 1.823459 -0.399377 120 126 133
-0.527143 1.636241 -0.165811 79 65 12
-0.585748 1.833670 -0.391686 120 126 133
-0.639869 1.872105 -0.478678 36 38 38
-0.648875 1.876896 -0.490468 110 114 103
-0.528052 1.631932 -0.157364 141 132 75
-0.557435 1.740888 -0.276668 64 70 81
-0.481342 2.515176 -0.841189 143 145 153
-0.636027 1.910870 -0.497988 68 68 68
-0.481882 2.526068 -0.848319 141 143 153
-0.486577 2.572155 -0.878905 141 144 152
-0.589482 1.817592 -0.357124 53 57 62
-0.651021 1.904667 -0.489266 157 155 144
-0.651898 1.892142 -0.479363 146 148 136
-0.650420 1.918153 -0.499038 151 152 142
-0.468403 1.447958 0.094163 18 27 30
-0.618622 2.218162 -0.702871 175 174 178
-0.663362 1.931647 -0.507914 94 95 85
-0.663362 1.931647 -0.507914 94 95 85
-0.699156 1.849269 -0.474152 114 112 34
-0.677770 1.895928 -0.490220 125 116 96
-0.697025 1.808245 -0.414311 49 48 52
-0.379163 3.249866 -1.284754 108 116 116
-0.379163 3.249866 -1.284754 108 116 116
-0.588498 1.755077 -0.249136 64 72 79
-0.698205 1.778667 -0.377060 70 72 72
-0.556393 2.539575 -0.854291 158 160 168
-0.613932 1.756581 -0.247985 148 154 159
-0.620749 1.704920 -0.205557 109 112 116
-0.659106 1.649058 -0.174147 75 75 35
-0.641607 1.769857 -0.256684 157 157 163
-0.674048 1.739628 -0.213620 147 149 150
-0.673110 1.794300 -0.249848 154 157 161
-0.713108 1.661618 -0.173408 57 57 17
-0.514317 2.988169 -1.087994 94 99 100
-0.514317 2.988169 -1.087994 94 99 100
-0.658637 1.454758 0.076526 89 93 98
-0.812464 1.662957 -0.232993 119 102 45
-0.669745 1.469522 0.079545 93 102 106
-0.669745 1.469522 0.079545 93 102 106
-0.814921 1.657658 -0.168292 253 255 252
-0.753674 1.538377 0.003965 37 43 38
-0.815162 1.499788 -0.011076 151 159 152
-0.898901 1.493871 -0.082195 66 66 12
-0.855177 1.524520 -0.035073 61 63 64
-0.898554 1.465353 -0.021317 127 138 130
-0.899655 1.495426 -0.036106 33 41 40
-72.499990 -38.779088 -37.678059 219 207 205
-0.902634 1.520259 -0.016713 166 169 167
-73.760457 -39.078635 -37.747484 218 202 203
-74.122258 -39.232943 -37.712401 218 195 180
-73.242731 -38.544630 -37.187565 216 205 215
-76.608783 -40.429604 -38.664429 214 185 176
-74.174009 -38.847470 -37.363783 216 204 210
-73.980401 -38.520870 -36.972184 219 204 212
-72.631314 -36.704930 -36.841964 172 172 178
-73.495751 -38.020440 -36.429567 211 201 207
1.583251 0.048710 -1.526978 255 255 252
1.546220 0.135495 -1.537048 253 255 255
1.530454 0.181591 -1.551431 255 255 255
1.526436 0.175770 -1.444770 139 143 137
1.526436 0.175770 -1.444770 139 143 137
1.513951 0.244092 -1.482139 165 164 130
1.570400 0.137615 -1.315876 255 255 254
1.569211 0.180238 -1.312648 52 50 49
1.510641 0.282634 -1.433081 147 148 122
1.519770 0.225312 -1.375520 136 137 128
1.519770 0.225312 -1.375520 136 137 128
1.535222 0.207817 -1.326755 131 130 120
1.410940 0.312606 -1.509326 77 64 18
1.562616 0.231264 -1.205576 157 158 142
1.429242 0.511080 -1.540325 101 90 40
1.422856 0.464987 -1.496842 169 148 93
1.344119 0.739325 -1.736182 255 255 251
1.435137 0.699343 -1.531168 59 58 62
1.333002 0.774161 -1.698345 117 109 49
1.414330 0.600335 -1.478458 63 74 82
1.416544 0.673185 -1.473260 50 54 55
1.416544 0.673185 -1.473260 50 54 55
1.498655 0.361154 -1.184457 114 121 108
1.359715 0.691778 -1.456544 105 109 114
1.346976 0.761916 -1.500200 126 132 143
1.288452 0.665897 -1.415903 67 69 70
1.300135 0.695679 -1.404296 115 117 118
1.381017 0.551179 -1.179801 43 42 14
1.380678 0.540870 -1.174562 98 101 69
1.279000 1.114344 -1.578695 172 171 173
1.282794 0.768036 -1.374737 161 159 159
1.336068 -0.166052 -0.809025 74 70 22
1.265070 0.941043 -1.464473 93 94 98
1.322093 -0.163497 -0.809491 71 68 30
1.453311 0.599814 -0.974910 152 155 116
1.263602 0.084124 -0.999889 169 179 113
1.255671 0.831102 -1.378480 146 151 150
1.328049 -0.164551 -0.757664 163 152 90
1.449605 0.562539 -0.926762 111 120 99
1.256379 0.812336 -1.365664 160 161 159
1.313484 -0.152129 -0.772218 162 155 106
1.447567 0.583378 -0.876156 31 38 25
1.296883 -0.130454 -0.741403 153 143 89
1.238198 1.059064 -1.408861 123 123 129
1.235376 0.967348 -1.348746 97 96 98
1.276709 0.838986 -1.200384 156 160 161
1.199681 -0.051093 -0.763596 46 37 27
1.238750 0.179551 -0.802506 113 120 39
1.159811 -0.131707 -0.639591 47 38 24
1.224657 0.984068 -1.121334 168 168 168
1.218922 1.088137 -1.181546 105 108 112
1.408421 0.801344 -0.695573 47 50 34
1.291094 0.966932 -0.925431 153 148 145
1.291094 0.966932 -0.925431 153 148 145
1.125484 -0.160894 -0.554771 169 150 82
1.188008 1.142464 -1.157824 79 80 84
1.201147 1.131271 -1.119657 117 116 120
1.201147 1.131271 -1.119657 117 116 120
1.080556 -0.139134 -0.580417 36 28 15
1.315563 0.865169 -0.746254 148 139 119
1.075006 -0.250043 -0.498106 182 174 137
1.163681 0.119746 -0.529080 92 91 57
1.216551 2.274653 -1.620454 153 147 148
1.079991 -0.160875 -0.483069 57 41 25
1.232864 1.056842 -0.867764 89 85 84
1.049865 -0.193020 -0.448534 117 108 64
1.035913 -0.265719 -0.423855 122 98 52
1.326514 1.035251 -0.686224 196 188 158
0.997256 -0.352215 -0.317174 118 105 61
1.151465 0.233915 -0.403136 155 159 123
1.163653 1.324782 -0.999566 121 123 133
1.002875 -0.053416 -0.454873 56 46 36
0.994631 -0.142040 -0.403010 115 96 58
0.967808 -0.444426 -0.247120 45 44 24
0.975108 -0.179379 -0.384824 55 47 10
0.966307 -0.452751 -0.242387 54 45 25
1.375097 0.909286 -0.392814 31 36 27
0.961515 -0.272461 -0.338489 181 163 92
0.967252 -0.166263 -0.386461 155 143 89
1.304460 1.098024 -0.586547 186 179 130
0.979965 -0.151566 -0.352511 166 157 94
0.951219 -0.405164 -0.251124 187 172 110
0.951100 -0.225169 -0.347841 188 173 100
0.836864 -1.147127 0.019578 94 80 52
0.844432 -1.080541 0.008065 66 55 28
0.816780 -1.251649 0.071122 53 46 29
0.889231 -0.888619 -0.012945 82 72 25
0.889231 -0.888619 -0.012945 82 72 25
0.872119 -0.962561 0.006521 156 142 100
1.252674 1.169023 -0.636853 147 146 132
1.173933 1.325295 -0.841151 89 95 94
0.927915 -0.154605 -0.355251 51 46 1
0.927915 -0.154605 -0.355251 51 46 1
1.211742 2.823366 -1.642914 151 144 141
1.152362 -1.627329 0.850311 166 156 92
0.927891 -0.049946 -0.393720 124 105 48
0.826846 -1.330479 0.221642 27 18 8
0.826846 -1.330479 0.221642 27 18 8
0.834657 -1.347039 0.244579 90 74 31
0.881668 -0.447426 -0.198962 168 153 91
1.067009 -1.912410 0.934590 90 80 46
0.828954 -1.370181 0.262614 47 34 0
0.789878 -1.471901 0.291230 52 45 12
1.398479 0.980739 -0.217494 105 109 98
0.814345 -1.354702 0.274165 138 129 85
0.814345 -1.354702 0.274165 138 129 85
0.814345 -1.354702 0.274165 138 129 85
0.848840 -0.448944 -0.197961 56 43 17
1.286035 1.192419 -0.499001 145 146 106
0.846406 -0.458727 -0.183744 62 60 42
0.853025 -0.281950 -0.274225 136 122 70
0.838171 -0.453197 -0.193874 55 47 40
0.784054 -1.443855 0.305718 33 28 27
0.813066 -0.297999 -0.317066 55 51 40
1.264441 1.056659 -0.431884 26 25 15
0.826710 -0.524289 -0.151445 119 110 90
0.826710 -0.524289 -0.151445 119 110 90
0.826053 -0.529377 -0.145087 113 104 71
0.826053 -0.529377 -0.145087 113 104 71
0.810673 -0.846474 0.025168 137 120 81
1.274454 1.210003 -0.481624 67 66 38
0.823110 -0.488595 -0.154490 135 126 99
0.823110 -0.488595 -0.154490 135 126 99
0.815033 -0.639202 -0.069046 110 102 72
0.801968 -0.399698 -0.222186 144 128 92
0.806336 -0.757894 -0.000480 69 63 34
0.972588 -1.792435 0.872020 98 102 96
1.362707 1.035945 -0.199450 125 127 121
1.362707 1.035945 -0.199450 125 127 121
0.767036 -0.496958 -0.174467 140 131 88
1.009642 -1.284358 0.657773 22 20 12
0.770538 -0.802792 0.020448 56 46 36
0.770029 -0.636981 -0.077681 35 25 18
0.790467 -0.128356 -0.323001 80 73 53
1.202831 2.924675 -1.522006 183 180 182
0.746113 -1.198822 0.314179 36 31 28
0.746113 -1.198822 0.314179 36 31 28
1.128173 -2.224208 1.506846 181 167 119
1.225424 3.093668 -1.504123 169 174 175
1.153109 1.451683 -0.622949 192 189 185
1.147100 1.378692 -0.584726 181 177 152
1.232211 3.109660 -1.499599 118 123 122
0.745132 -0.144167 -0.240363 96 90 53
1.343285 1.121899 -0.123408 123 121 110
1.180322 1.332984 -0.488107 142 138 90
1.224441 3.104246 -1.487888 161 166 167
1.021327 -1.879125 1.239000 104 97 70
1.233626 3.130533 -1.467971 127 135 134
0.998291 -1.792859 1.174816 95 96 70
1.139490 1.491727 -0.600840 78 82 63
1.208759 3.031538 -1.421394 169 171 172
1.139432 0.703191 -0.093196 108 116 46
1.368482 1.117826 -0.009633 107 107 101
1.123175 1.528624 -0.610287 76 78 42
1.123175 1.528624 -0.610287 76 78 42
1.175578 1.381861 -0.438830 76 71 32
0.969989 -1.849055 1.243720 126 122 74
1.104767 -2.456174 1.820536 99 86 48
0.959540 -1.852262 1.251672 49 44 19
1.141752 1.436385 -0.474177 159 155 102
1.094278 -2.387643 1.816126 78 63 31
1.048195 -2.222610 1.649117 53 44 17
1.083951 -2.380310 1.799802 163 155 108
1.149858 1.451193 -0.450523 140 133 78
0.885096 -1.030954 0.701462 90 82 69
1.048056 -2.059686 1.580904 155 142 90
0.861583 -0.996644 0.723546 81 71 61
0.850621 -0.951874 0.718754 31 24 21
1.253216 1.432640 -0.157124 134 129 104
0.842340 -0.914368 0.723605 164 147 138
1.351504 1.212881 0.125376 111 111 99
0.824787 -1.526404 1.090659 78 77 63
1.252115 1.451201 -0.155865 62 59 44
0.863163 -1.557288 1.184969 19 16 18
1.323873 1.238348 0.097755 115 117 117
0.836335 -1.106522 0.883242 80 78 60
1.243762 1.449553 -0.131934 136 122 80
1.152399 1.481851 -0.274233 157 155 125
0.800337 -1.387442 1.035095 22 17 18
0.875405 -2.545911 1.890984 186 179 116
0.838813 -1.106833 0.933695 163 154 97
1.224820 1.503876 -0.156396 150 148 124
1.412256 3.358259 -1.060475 85 84 70
0.813060 -2.032058 1.497163 163 155 108
1.238995 1.478306 -0.108458 56 53 32
0.795468 -1.934225 1.426455 40 38 28
0.874421 -1.582720 1.325408 70 69 55
0.864488 -1.569314 1.309596 32 36 31
0.805878 -0.966084 0.852223 22 17 18
0.769127 -0.882223 0.749194 60 47 45
0.818192 -1.047956 0.930610 70 64 65
1.261528 2.667478 -0.800282 140 140 146
1.244597 1.501827 -0.080372 112 108 107
0.751385 -1.615154 1.207167 18 18 6
0.800194 -1.248730 1.044885 72 77 75
1.409280 3.356936 -1.021520 137 139 139
1.335845 3.027535 -0.892781 135 137 145
0.788540 -1.002318 0.934595 31 25 26
1.223712 2.620433 -0.765176 100 108 121
0.830511 -1.682685 1.441950 92 91 77
1.181444 1.708213 -0.226766 48 50 58
0.757369 -1.272833 1.099630 34 35 15
0.716488 -2.139750 1.599237 73 62 32
0.745961 -1.279570 1.093566 23 19 14
1.181972 1.706964 -0.211517 130 135 150
1.169671 1.773026 -0.267044 92 97 112
0.699693 -2.047464 1.546575 98 90 53
0.769435 -0.949234 0.939306 97 102 81
1.245747 1.552826 -0.001368 96 93 95
0.723803 -0.850380 0.814808 33 30 26
1.163930 2.021110 -0.417998 72 75 79
1.207836 2.578644 -0.711656 171 177 188
1.157138 1.921653 -0.354052 57 63 74
0.732044 -0.877044 0.856030 110 116 99
1.156538 1.830343 -0.295013 129 132 140
1.238571 1.548683 0.008662 168 166 155
0.718336 -0.853095 0.832353 97 104 89
0.704964 -0.847403 0.813774 87 95 72
0.705641 -0.846428 0.814476 87 95 72
1.219333 2.545502 -0.654619 84 87 101
1.212806 2.553090 -0.666459 12 21 41
1.147333 1.778539 -0.252073 24 30 43
1.185703 2.591832 -0.722856 40 54 66
1.146367 1.911022 -0.331516 43 45 63
1.249635 1.698581 -0.048623 28 30 38
1.194620 2.592311 -0.700946 86 88 99
1.193249 2.601432 -0.704188 114 124 142
1.216623 2.551955 -0.630615 55 65 75
1.223695 2.518476 -0.598031 124 121 130
1.184503 2.606733 -0.706680 16 24 41
1.230887 1.593881 0.017733 125 126 122
1.223064 1.649862 -0.028986 52 55 53
1.228143 1.667454 -0.031442 166 166 166
0.090466 -3.823015 1.955941 92 85 58
1.129567 1.942050 -0.343845 59 66 75
0.714550 -2.082822 1.695252 50 41 28
1.176442 1.760524 -0.159649 84 93 102
1.045893 0.737405 0.327930 75 67 37
1.181097 1.744107 -0.135397 38 44 57
0.739868 -1.873470 1.605078 147 136 104
1.043141 0.750400 0.319999 74 71 33
1.043141 0.750400 0.319999 74 71 33
0.690661 -0.762089 0.819853 103 120 107
1.198834 2.557993 -0.632545 24 25 39
1.220654 1.706043 -0.046530 128 134 139
1.220654 1.706043 -0.046530 128 134 139
0.098405 -3.790566 1.974551 29 27 16
1.190846 2.667217 -0.710789 133 143 160
0.711374 -2.124990 1.748410 189 167 109
1.185027 2.673458 -0.720960 23 25 35
1.197241 2.571459 -0.634234 113 119 126
1.156559 2.168142 -0.425647 185 184 188
1.165656 1.913004 -0.246421 165 174 184
1.212981 1.717583 -0.052677 113 114 118
0.694260 -2.268744 1.827650 99 81 28
1.238989 2.959014 -0.825117 106 112 119
1.161378 2.133819 -0.389121 174 171 173
0.687682 -0.755240 0.841124 65 62 41
1.183894 2.672250 -0.703844 33 46 68
1.180544 2.755215 -0.761790 135 141 152
0.631283 -2.461438 1.887999 101 92 55
1.188507 2.581775 -0.635733 15 20 41
1.171857 2.700295 -0.735075 61 67 78
1.220584 1.680493 0.001503 151 156 154
1.228146 1.586770 0.074431 143 138 137
1.189178 2.362580 -0.484855 165 163 169
1.143011 2.083486 -0.365271 183 180 189
1.158461 1.928172 -0.240335 33 33 39
1.153345 2.158865 -0.397759 178 177 181
1.191456 2.568054 -0.612055 21 23 34
1.185658 2.374141 -0.491110 182 177 179
0.689947 -0.723826 0.854290 109 112 86
1.295510 1.388751 0.311110 154 152 151
1.295510 1.388751 0.311110 154 152 151
1.194405 2.848598 -0.783655 178 181 185
1.194405 2.848598 -0.783655 178 181 185
1.186005 2.818943 -0.774382 181 180 182
1.165571 2.705079 -0.727897 22 26 37
1.174940 2.676253 -0.695447 129 145 151
1.178049 2.670806 -0.687534 32 32 48
1.208962 2.553925 -0.567427 96 98 108
1.184833 2.404222 -0.501224 52 51 60
0.614032 -2.377162 1.844306 130 122 82
1.126067 1.964350 -0.293970 35 43 56
0.610757 -2.348610 1.824965 172 161 103
1.213517 1.673422 0.021841 137 136 138
1.191071 2.567422 -0.595611 98 105 124
1.015890 0.755832 0.350800 157 159 99
1.175205 2.596334 -0.634540 129 133 144
1.167882 2.682576 -0.695767 133 144 148
1.208110 1.664147 0.032052 84 84 84
1.175517 2.651685 -0.662207 154 159 174
1.135702 2.073563 -0.336623 99 95 100
0.648914 -2.428815 1.955714 120 111 77
1.182352 2.590764 -0.604578 104 111 120
1.155094 2.736121 -0.737462 60 74 93
1.137315 1.939344 -0.236657 102 106 117
1.145876 2.167792 -0.374365 168 167 171
1.182126 2.415116 -0.485073 151 153 161
1.142786 2.579923 -0.646734 31 32 36
1.118273 1.967416 -0.274931 45 47 57
1.164860 2.599307 -0.618337 14 17 25
0.687750 -0.820709 0.978377 44 35 21
1.208136 1.690863 0.042994 141 141 141
1.215153 1.671713 0.065689 140 138 138
0.655125 -1.113982 1.130430 150 134 98
0.680260 -0.860568 1.002572 48 36 26
1.145472 2.660837 -0.678227 42 44 62
1.042936 1.706345 -0.189210 56 65 75
1.042936 1.706345 -0.189210 56 65 75
1.147024 2.690502 -0.691744 153 164 194
0.586921 -2.054031 1.670453 114 107 82
1.134697 2.705850 -0.711006 132 139 154
1.138152 2.629788 -0.654892 16 15 19
1.192077 1.745603 0.010789 155 156 154
0.632183 -1.190317 1.182604 165 147 100
1.151730 2.609996 -0.614844 115 124 134
1.155210 2.399386 -0.469371 170 172 180
1.124459 2.640497 -0.668113 11 18 37
1.124459 2.640497 -0.668113 11 18 37
1.146919 2.592283 -0.599852 21 23 34
1.167627 2.525627 -0.527024 163 168 177
1.132205 2.615886 -0.633164 20 19 21
1.120240 2.181461 -0.360729 22 20 26
0.552437 -2.185575 1.754519 178 164 105
0.646951 -1.068513 1.143668 73 61 21
1.163335 2.585263 -0.567213 18 20 30
1.163335 2.585263 -0.567213 18 20 30
1.139152 2.602288 -0.611628 34 34 46
1.132764 2.326975 -0.435781 177 179 180
1.144703 2.414817 -0.476808 174 178 189
1.141633 2.401210 -0.470849 39 38 48
1.142905 2.384402 -0.457686 177 176 180
1.115107 2.663688 -0.676448 155 154 158
1.126144 2.616550 -0.627026 111 114 135
1.102332 2.087183 -0.307505 182 181 183
1.109153 1.852200 -0.141064 136 143 152
1.136887 2.413638 -0.474345 144 150 157
1.134662 2.382818 -0.454558 23 28 43
1.134662 2.382818 -0.454558 23 28 43
1.193472 1.696041 0.086954 136 134 133
1.093718 2.078871 -0.304107 33 35 45
1.183688 1.530128 0.188391 155 143 109
1.175636 1.689788 0.071240 121 122 120
0.103513 -3.636193 2.144711 34 22 12
0.170124 -3.663979 2.256615 255 254 249
1.229146 1.502763 0.271005 87 89 69
1.145609 2.557480 -0.544098 86 90 95
1.086411 2.107628 -0.325734 147 150 158
0.546875 -2.395949 1.933044 40 31 28
0.652620 -0.814088 1.026995 187 168 107
1.097620 1.942677 -0.197882 48 54 67
0.638266 -0.920482 1.083108 178 165 97
0.638266 -0.920482 1.083108 178 165 97
1.111204 2.442509 -0.507500 169 168 172
-0.011895 -0.955779 0.217351 26 21 18
1.135463 2.561295 -0.552744 170 169 178
0.577229 -1.406415 1.326168 52 40 16
1.169318 1.520817 0.189572 148 144 115
1.078601 1.855794 -0.157281 64 66 76
0.587982 -1.345221 1.305846 56 39 12
0.640329 -0.861978 1.057516 62 41 19
0.497059 -2.059855 1.663605 32 22 15
0.148261 -3.622294 2.231558 113 102 45
0.611293 -1.127903 1.201704 76 61 42
0.617935 -0.952580 1.096259 72 56 33
1.264992 1.532098 0.324127 32 33 31
1.270394 1.521123 0.342119 29 34 37
1.119669 2.619333 -0.593683 128 135 155
1.162139 1.721673 0.064176 139 139 139
1.274123 1.468385 0.386993 150 151 142
0.628429 -0.857294 1.060527 113 106 86
0.628429 -0.857294 1.060527 113 106 86
1.257490 3.463611 -0.965351 165 161 160
0.157942 -0.315141 0.061649 105 94 67
1.131681 2.591736 -0.549984 71 82 102
1.103733 2.434185 -0.480066 175 181 194
1.136272 1.791476 -0.002135 131 133 134
0.151438 -0.368888 0.098181 90 82 59
0.581448 -1.198535 1.241093 84 65 38
1.052841 1.915573 -0.197030 109 116 125
0.507067 -2.343271 1.913614 48 42 23
0.514332 -1.706856 1.501446 97 86 64
0.097295 -3.553899 2.171391 24 17 8
1.031297 2.058964 -0.312359 30 37 56
0.573743 -1.177237 1.233795 206 187 120
0.580999 -1.086872 1.184138 163 146 103
0.580209 -1.114179 1.202868 99 86 48
0.631838 -0.689193 0.989173 192 179 123
0.631838 -0.689193 0.989173 192 179 123
1.149138 1.704945 0.092032 150 150 150
1.132666 1.763795 0.030325 157 159 159
0.533274 -1.495039 1.403320 188 179 116
1.032597 1.977441 -0.245141 134 141 158
0.578595 -0.999323 1.134242 182 171 111
0.573703 -1.102734 1.199020 170 159 101
0.135843 -3.602009 2.283773 121 107 55
0.158091 -0.233878 0.052606 43 34 25
1.031141 1.922299 -0.203148 121 133 145
0.090992 -3.543596 2.188253 92 87 56
0.160457 -0.155718 0.010206 34 25 11
0.616159 -0.666976 0.975410 63 52 38
1.021597 2.059358 -0.301243 149 148 158
0.125669 -3.560401 2.259172 69 54 15
1.065364 2.659246 -0.641999 166 168 176
1.107277 1.778279 0.008850 98 102 107
0.561383 -1.136265 1.227092 182 171 109
0.560554 -1.146291 1.235578 184 174 110
1.056174 1.842688 -0.098171 25 28 32
1.146024 1.673062 0.138925 98 97 101
1.018638 2.084172 -0.310440 80 80 96
0.136956 -0.436228 0.191256 83 78 63
1.227180 3.434692 -0.932108 95 95 95
0.119408 -3.534258 2.265405 142 128 69
1.005770 1.872231 -0.167610 32 36 41
1.008054 2.035594 -0.270187 150 153 158
0.462286 -1.803894 1.582947 35 30 29
1.235829 3.408843 -0.881940 148 149 147
1.109056 2.934171 -0.727173 120 120 126
0.998081 1.943075 -0.201031 73 81 94
1.021677 1.829764 -0.087826 119 128 138
1.188406 1.527716 0.342515 179 181 182
1.095575 1.788917 0.051196 14 18 23
1.051876 1.834753 -0.033540 74 80 91
1.203355 1.449817 0.443393 107 106 108
1.203355 1.449817 0.443393 107 106 108
1.203722 1.436641 0.467524 92 95 93
1.125155 1.521606 0.317175 33 40 43
0.500044 -0.680543 0.977630 212 198 156
1.070173 1.787768 0.068323 32 44 54
0.348354 -1.923612 1.643822 158 148 114
1.044672 1.684739 0.128411 91 103 113
0.986549 1.528950 0.176528 115 116 52
0.054351 -3.408204 2.314829 140 126 74
0.310807 -1.032995 1.035800 95 92 78
0.317791 -1.793650 1.587159 154 147 114
0.359136 -0.861205 1.005685 43 36 33
0.836225 1.683278 -0.103638 146 149 147
1.054781 1.520319 0.324752 123 119 118
0.823269 1.670793 -0.076349 56 60 35
0.342193 -0.841448 1.017900 167 156 126
1.035058 1.469106 0.347910 122 122 116
0.784122 1.704514 -0.147754 175 171 123
0.403035 -0.544028 0.901519 149 151 99
0.260554 -1.580085 1.439285 47 43 38
0.787305 3.298765 -1.214593 132 130 129
0.806701 3.361095 -1.231538 184 188 193
0.710441 1.794905 -0.272896 177 179 173
0.818937 3.390215 -1.232556 109 110 120
0.818937 3.390215 -1.232556 109 110 120
-0.040999 -3.341729 2.297077 47 36 16
0.734723 1.777254 -0.216789 182 183 181
0.723285 2.983687 -1.058994 153 154 152
0.723285 2.983687 -1.058994 153 154 152
0.237999 -1.428466 1.364446 52 48 37
0.333027 -0.726281 1.002921 165 144 92
0.194940 -1.625937 1.448430 36 30 25
0.313611 -0.743747 1.011664 167 143 77
-0.063513 -3.272772 2.285457 30 21 8
0.745803 1.669137 -0.078082 134 132 84
0.841489 1.666009 0.057831 66 67 51
0.684654 1.685207 -0.148893 79 84 39
0.308464 -0.644163 0.984990 44 36 23
0.266690 -0.761850 1.021065 33 24 20
0.821536 1.522230 0.156000 43 36 11
0.190714 -2.134011 1.901508 199 190 126
0.666639 3.116284 -1.150310 191 183 160
0.241262 -0.519814 0.853301 17 12 14
0.198585 -1.256816 1.326389 66 60 49
0.198585 -1.256816 1.326389 66 60 49
0.198585 -1.256816 1.326389 66 60 49
0.628189 2.750244 -0.918558 76 67 24
0.628189 2.750244 -0.918558 76 67 24
0.175349 -1.263167 1.326959 181 176 127
0.157077 -1.309471 1.349281 75 66 46
0.134995 -1.373102 1.379099 77 65 37
0.592635 2.734123 -0.909264 197 185 149
0.841898 1.523619 0.280165 170 174 162
0.850509 1.475400 0.352744 32 37 40
0.058235 -1.562537 1.481583 49 38 30
0.018242 -1.836691 1.627918 37 34 29
0.570737 3.111445 -1.165243 175 178 153
0.556669 3.109637 -1.179049 76 72 61
0.665834 3.436180 -1.261962 133 141 141
-0.111991 -0.094520 0.240044 253 254 252
0.546778 3.102044 -1.165945 119 119 107
-0.114006 -2.588537 2.034123 54 50 39
0.489490 1.811221 -0.316216 177 162 93
0.007872 -2.035651 1.805916 51 41 34
-0.159180 -2.693152 2.059242 36 24 0
0.706837 1.649621 0.093536 155 154 104
-0.164367 -2.673464 2.051513 30 26 2
-0.017208 -2.044809 1.809801 136 128 99
-0.006122 -1.331211 1.331298 86 86 74
-0.006122 -1.331211 1.331298 86 86 74
0.512071 1.678264 -0.150191 51 58 13
0.016810 -1.155979 1.243302 29 23 18
-0.327148 -3.082728 2.187435 70 63 48
0.631495 3.476710 -1.272728 166 171 180
-0.059577 -1.765962 1.593808 90 89 75
-0.059577 -1.765962 1.593808 90 89 75
-0.012966 -1.327444 1.346526 32 30 22
-0.076814 0.230843 0.146570 132 125 108
-0.191470 -0.347585 0.422063 34 30 19
-0.191470 -0.347585 0.422063 34 30 19
0.483227 1.700259 -0.174753 82 85 30
0.535879 1.663783 -0.077136 52 58 33
0.592046 1.639551 0.013335 72 74 52
-0.076714 0.249381 0.150736 63 51 41
0.615974 1.617866 0.062487 177 172 109
-0.052469 -1.983451 1.790440 91 84 45
0.622710 3.489579 -1.260530 182 186 191
-0.056924 -1.533282 1.480915 44 34 24
-0.001344 -1.177142 1.298180 157 141 95
-0.062128 -1.947166 1.774504 12 7 8
0.076146 -0.603626 1.016552 61 44 31
0.039784 -0.722276 1.076936 87 69 40
0.551860 1.634650 0.040662 60 58 23
-0.002208 -0.916235 1.181647 184 163 112
-0.086807 -1.936145 1.815979 120 108 66
0.532987 1.635858 0.026024 181 175 132
-0.154200 -0.005618 0.342610 130 132 110
-0.130465 -0.106395 0.449097 42 36 23
0.525682 1.644891 0.021049 40 44 25
-0.140221 -0.129987 0.459715 51 47 28
0.045970 -0.546785 1.003725 129 140 120
0.532880 1.642544 0.043140 52 52 38
0.532880 1.642544 0.043140 52 52 38
-0.107500 -1.978479 1.864872 43 24 9
-0.104806 -1.927140 1.866031 163 142 97
-0.199286 -0.069699 0.392902 27 21 16
-0.118077 -1.980379 1.897869 179 163 96
-0.266761 -0.300204 0.484759 23 19 14
-0.178176 0.262300 0.188247 150 136 107
0.568935 1.469896 0.267628 105 116 113
0.466412 3.436869 -1.296463 143 146 144
0.340937 3.027525 -1.153808 190 182 175
-0.204139 0.120643 0.279195 22 19 15
0.267101 1.805392 -0.349977 89 85 20
0.286700 0.957880 0.295378 94 104 68
0.250661 1.801093 -0.364615 175 159 76
-0.202809 -1.619777 1.563989 68 63 48
-0.178613 0.187038 0.274139 128 124 105
0.570821 1.463867 0.294668 31 39 39
0.474549 3.486971 -1.304682 73 80 77
-0.238800 -0.460445 0.678591 59 56 52
-0.238800 -0.460445 0.678591 59 56 52
0.121823 -0.215971 0.968349 135 115 80
-0.139175 -1.167226 1.339361 36 24 14
-0.241553 -0.071207 0.408549 156 148 125
-0.181839 -1.386931 1.450168 130 112 53
-0.133199 -1.117892 1.321826 32 21 17
-0.751995 -3.278550 2.136688 199 183 116
-0.238555 0.084719 0.319832 104 98 79
-0.252887 0.006632 0.359023 90 84 65
-0.162159 -1.193600 1.376474 178 157 112
0.282168 3.062238 -1.191360 184 181 173
-0.198594 -1.356901 1.455723 71 54 28
-0.119284 -0.868678 1.201575 154 136 89
-0.775864 -3.261673 2.143375 202 182 111
0.270560 3.064390 -1.191895 104 94 70
0.270560 3.064390 -1.191895 104 94 70
-0.806726 -3.239531 2.099159 255 254 255
0.265335 3.046974 -1.182323 193 187 180
0.558514 1.444521 0.376721 33 42 45
-0.386016 -0.306490 0.478082 47 39 26
-0.106814 -0.692683 1.116180 64 43 21
0.413638 3.483359 -1.302578 180 180 180
-0.192805 -1.177101 1.376836 79 62 36
-0.260748 -1.364079 1.435953 201 189 149
-0.808145 -3.189692 2.112363 93 70 75
0.386299 3.479342 -1.311213 178 182 183
-0.125515 -0.682732 1.126044 54 38 22
-0.158855 -0.823877 1.211734 71 52 14
-0.435523 -1.943413 1.698903 72 60 50
-0.807423 -3.163427 2.140340 96 75 44
-0.379983 -1.758001 1.640412 121 122 78
-0.820964 -3.164482 2.133270 95 75 50
-0.116692 -0.474500 1.018896 132 121 93
0.379522 3.489503 -1.300721 180 183 181
-0.099264 -0.373016 0.967105 94 103 106
-0.167819 -0.814054 1.213807 176 159 110
-0.456698 -1.964339 1.708204 141 132 105
0.313146 1.624102 0.014474 193 179 103
-0.913333 -3.294832 2.141846 133 104 60
-0.828318 -3.115181 2.115627 253 254 252
-0.828318 -3.115181 2.115627 253 254 252
0.310663 1.640540 0.003654 74 68 33
0.329638 3.480149 -1.337310 76 84 74
-0.896232 -3.335009 2.208364 255 255 240
-0.121692 -0.368760 0.975621 124 135 133
-0.463465 -1.439677 1.351534 47 41 36
-0.158780 -0.592106 1.103858 89 69 38
-0.535149 -0.279244 0.420819 158 166 135
0.269062 1.648551 -0.012930 183 174 107
0.269062 1.648551 -0.012930 183 174 107
0.049208 -0.012584 0.954064 116 107 80
-0.844048 -3.120746 2.164240 201 180 118
0.044334 -0.022792 0.965126 60 45 19
-0.151201 -0.389404 0.996029 48 40 27
-0.145110 -0.361834 0.983366 151 160 134
0.244968 3.392829 -1.331772 189 190 170
0.330998 1.523494 0.193280 105 125 106
0.032328 0.045943 0.959001 104 109 80
0.190531 3.370528 -1.340519 178 181 172
-0.938363 -3.040337 2.109655 75 65 55
-0.002831 1.767432 -0.348292 151 145 72
0.011197 0.072304 0.954760 102 102 78
0.284012 1.471020 0.243128 62 78 85
-0.539193 -1.215796 1.261222 60 48 30
0.006337 0.081799 0.958606 116 113 75
0.231821 1.509603 0.160246 29 37 37
-0.526514 -1.064845 1.176574 43 31 13
0.147570 3.386615 -1.354140 186 184 160
-0.397275 0.220647 0.390415 41 33 26
0.104175 3.362790 -1.361142 158 164 141
-0.425561 0.109228 0.466305 102 99 91
0.087513 1.609774 -0.031178 183 164 89
-0.429290 0.217897 0.392126 76 74 63
-0.439711 0.142613 0.439696 70 64 59
-0.006336 3.194705 -1.330805 108 109 83
-0.508411 -0.680704 1.007745 91 85 66
-0.475442 0.084100 0.475995 176 168 138
-0.461339 0.331009 0.314011 161 162 123
0.165078 1.459444 0.223551 28 34 39
-0.017536 3.207869 -1.331476 178 179 153
0.032592 3.368696 -1.368624 165 168 146
-0.002940 3.340409 -1.385825 109 116 103
0.152780 1.483033 0.224497 78 89 87
-0.534004 0.137338 0.425419 165 162 124
-0.062250 3.203876 -1.345831 153 156 130
-0.537377 0.157490 0.412861 167 165 111
-0.533550 0.320161 0.296266 61 50 28
-0.540636 0.293043 0.318850 37 24 8
-0.201323 1.693163 -0.334618 88 76 10
-0.163499 1.644293 -0.248331 113 112 68
-0.163499 1.644293 -0.248331 113 112 68
0.166766 1.448079 0.313185 21 29 36
-0.254895 1.791023 -0.449570 80 70 0
-0.599458 0.072535 0.459684 68 61 52
-0.589975 0.310937 0.291844 183 175 128
-0.589975 0.310937 0.291844 183 175 128
-0.743965 -0.722080 0.905352 144 137 82
-0.610852 0.130983 0.415199 155 153 123
-0.244207 1.993237 -0.570644 190 180 96
-0.622863 0.140161 0.410279 167 159 99
-0.197860 2.539174 -0.920969 186 182 164
-0.140331 3.178900 -1.344381 125 128 119
-0.203414 2.490356 -0.887125 188 181 164
-0.635570 0.060076 0.466283 63 52 30
-0.635570 0.060076 0.466283 63 52 30
-0.168271 2.892519 -1.150953 191 188 174
-0.084968 3.344785 -1.394925 96 102 101
-0.647043 0.091232 0.440003 185 172 116
0.030925 1.475197 0.200570 98 105 102
0.030925 1.475197 0.200570 98 105 102
-0.668114 0.099619 0.427812 58 42 25
-0.668114 0.099619 0.427812 58 42 25
-0.679461 0.043212 0.457780 192 186 143
-0.679461 0.043212 0.457780 192 186 143
-0.108071 3.331266 -1.394965 168 173 164
-0.244115 2.336519 -0.785916 128 129 85
-0.685824 0.061878 0.446686 162 160 126
-0.223910 2.588527 -0.946223 126 125 105
-0.094111 3.357305 -1.383980 108 113 112
-0.123690 1.618615 -0.064661 183 181 116
-0.347448 0.955770 0.180953 74 95 96
-0.169943 3.228875 -1.361920 101 106 105
-0.177036 3.227384 -1.355251 170 171 169
-0.271756 2.353017 -0.785716 189 179 145
-0.245110 2.563362 -0.914961 191 187 158
-0.310033 1.652441 -0.269889 128 116 68
-0.067861 1.525644 0.125247 92 110 111
-0.085152 1.458813 0.174387 71 76 77
-0.123192 1.532391 0.109932 25 29 30
-0.398110 1.979205 -0.551913 183 178 93
-0.334982 2.559951 -0.930085 100 100 86
-0.334982 2.559951 -0.930085 100 100 86
-0.330147 2.607766 -0.960518 114 115 99
-0.330147 2.607766 -0.960518 114 115 99
-0.365593 2.292494 -0.754711 184 182 112
-0.422498 1.638923 -0.306680 75 68 25
-0.280426 1.513240 -0.038628 35 29 10
-0.356636 2.367867 -0.798465 183 184 145
-0.148081 1.480772 0.147575 106 112 107
-0.344475 2.543921 -0.913179 175 173 165
-0.438797 1.712120 -0.370465 101 96 27
-0.157318 3.477582 -1.404324 190 189 179
-0.423490 1.997242 -0.546613 187 178 135
-0.333818 2.866196 -1.116269 121 121 121
-0.283823 3.365250 -1.426632 170 171 167
-0.244746 3.427413 -1.427328 122 124 112
-0.336967 3.028593 -1.214389 134 132 131
-0.347569 2.926947 -1.145875 180 176 175
-0.349003 2.914416 -1.134679 187 181 176
-0.389104 1.608417 -0.116043 172 155 92
-0.535082 1.641329 -0.301594 55 45 21
-0.385187 2.964991 -1.167667 126 127 125
-0.537019 1.705346 -0.336347 142 140 130
-0.533721 1.803251 -0.400923 150 146 145
-0.356304 3.233966 -1.327255 167 165 165
-0.551298 1.718694 -0.336832 76 77 75
-0.443698 2.626045 -0.928478 125 127 128
-0.353051 3.370254 -1.413341 123 128 131
-0.353051 3.370254 -1.413341 123 128 131
-0.405639 2.999455 -1.170153 89 94 93
-0.552985 1.749575 -0.344468 123 123 123
-0.552888 1.762670 -0.353931 129 128 132
-0.409103 3.058084 -1.215539 155 155 155
-0.314394 3.473110 -1.435402 174 175 165
-0.370742 3.396035 -1.430185 130 131 129
-0.411827 3.035517 -1.186257 159 155 160
-0.411827 3.035517 -1.186257 159 155 160
-0.360116 3.366318 -1.388490 138 143 152
-0.408844 3.015294 -1.163693 169 169 169
-0.408844 3.015294 -1.163693 169 169 169
-0.417363 2.959290 -1.126401 161 164 169
-0.387485 1.514033 0.066792 105 120 122
-0.488532 1.655094 -0.162323 56 49 24
-0.488532 1.655094 -0.162323 56 49 24
-0.376412 3.373572 -1.396763 146 151 154
-0.418973 3.028374 -1.169146 43 50 65
-0.418973 3.028374 -1.169146 43 50 65
-0.628929 1.907780 -0.508784 158 150 157
-0.483711 2.594134 -0.886786 145 147 157
-0.408376 3.081351 -1.186835 51 59 66
-0.408376 3.081351 -1.186835 51 59 66
-0.420356 1.512669 0.059615 105 122 125
-0.411631 3.149014 -1.239441 158 163 166
-0.433980 2.969863 -1.121234 32 38 49
-0.392394 3.274468 -1.316000 157 157 157
-0.433066 2.960400 -1.111392 159 166 169
-0.506855 1.640163 -0.138708 66 56 9
-0.431111 2.984420 -1.127922 141 143 143
-0.388242 3.386011 -1.398835 159 161 162
-0.428675 3.164120 -1.267487 150 152 153
-0.487300 2.650649 -0.923850 155 159 164
-0.424273 3.063299 -1.176897 154 156 157
-0.492524 2.594561 -0.875364 53 55 56
-0.492524 2.594561 -0.875364 53 55 56
-0.392047 3.190985 -1.233255 150 152 153
-0.393357 3.317059 -1.335102 141 145 146
-0.442344 2.954579 -1.100718 125 127 127
-0.433966 2.979139 -1.108284 158 163 164
-0.447982 2.990777 -1.128625 83 85 85
-0.399278 3.335752 -1.347041 131 134 139
-0.677988 1.842295 -0.468323 140 146 153
-0.435306 3.032250 -1.143279 158 160 160
-0.435306 3.032250 -1.143279 158 160 160
-0.433916 3.139749 -1.227257 131 133 143
-0.670476 1.821700 -0.438410 52 52 58
-0.600667 1.800422 -0.336989 39 38 40
-0.431381 3.163040 -1.234756 152 159 174
-0.634845 2.263604 -0.742914 161 157 146
-0.441211 3.029591 -1.133189 170 169 173
-0.402100 3.337397 -1.334253 63 64 68
-0.403844 3.354277 -1.349020 137 142 143
-0.433859 3.187795 -1.246217 154 158 163
-0.454231 3.061099 -1.161462 50 52 62
-0.454231 3.061099 -1.161462 50 52 62
-0.473517 2.905443 -1.057762 162 163 159
-0.413687 3.366993 -1.353726 117 123 122
-0.475167 2.939035 -1.076895 51 57 68
-0.475167 2.939035 -1.076895 51 57 68
-0.475167 2.939035 -1.076895 51 57 68
-0.681870 1.815926 -0.409723 65 66 70
-0.460347 3.027667 -1.129730 71 74 79
-0.460347 3.027667 -1.129730 71 74 79
-0.462194 3.051033 -1.147254 161 163 163
-0.460854 3.122465 -1.197010 56 62 73
-0.466357 3.025409 -1.122507 169 171 181
-0.484632 2.934460 -1.070167 161 163 171
-0.456928 3.174452 -1.230827 158 161 169
-0.488492 2.904497 -1.048213 164 166 167
-0.610821 1.742122 -0.247563 138 137 146
-0.422065 3.391681 -1.358852 58 63 64
-0.627673 1.817063 -0.323841 43 41 47
-0.447514 3.204156 -1.232738 95 97 107
-0.473132 3.036087 -1.124244 164 166 174
-0.675201 1.576413 -0.176647 168 158 88
-0.604962 1.660491 -0.162410 150 133 70
-0.465877 3.140129 -1.195373 147 154 163
-0.654693 1.510886 -0.090931 114 108 67
-0.696352 1.498445 -0.128350 120 104 57
-0.496786 2.942483 -1.062011 159 161 161
-0.433387 3.369722 -1.333740 161 168 183
-0.663650 1.687495 -0.234775 60 63 67
-0.434955 3.400261 -1.358022 78 82 83
-0.468976 3.157092 -1.200083 32 37 52
-0.617398 2.502691 -0.838506 186 182 181
-0.570689 3.181093 -1.330185 168 170 178
-0.658285 1.699689 -0.219319 111 114 119
-0.658285 1.699689 -0.219319 111 114 119
-0.449298 3.271216 -1.242196 162 163 153
-0.483536 3.158068 -1.184151 134 137 145
-0.495307 3.160580 -1.194566 136 142 155
-0.490244 3.120885 -1.154199 128 128 128
-0.462103 3.353481 -1.309772 88 94 93
-0.462103 3.353481 -1.309772 88 94 93
-0.457642 3.406600 -1.345245 142 145 136
-0.490572 3.139138 -1.158801 163 166 170
-0.526104 1.435009 0.189392 41 42 46
-0.635865 1.506262 0.011067 31 36 34
-0.461501 3.339401 -1.277340 152 159 168
-0.494770 3.154729 -1.162889 167 172 173
-0.493575 3.177911 -1.180189 27 33 44
-0.510671 3.097835 -1.130948 173 172 168
-0.501829 3.203165 -1.191549 138 141 149
-0.526995 3.075181 -1.113725 99 104 103
-0.526995 3.075181 -1.113725 99 104 103
-0.534348 3.028756 -1.084169 167 166 162
-0.534348 3.028756 -1.084169 167 166 162
-0.512685 3.185479 -1.185969 48 52 53
-0.509488 3.162748 -1.161954 162 161 170
-0.517293 3.131693 -1.140487 105 106 97
-0.496299 3.219481 -1.182694 43 50 47
-0.474919 3.350246 -1.262433 156 160 154
-0.517718 3.191352 -1.174411 161 160 162
-0.531272 3.118043 -1.129210 176 176 158
-0.486653 3.424097 -1.327140 132 138 89
-0.493499 3.394524 -1.307610 109 117 86
-0.538867 3.110378 -1.124652 75 78 63
-0.544545 3.067819 -1.095838 169 166 162
-0.544545 3.067819 -1.095838 169 166 162
-0.533617 3.168495 -1.162508 168 172 167
-0.490344 3.365388 -1.272538 139 144 123
-0.538659 3.127621 -1.132332 182 183 181
-0.539047 3.149240 -1.144921 171 170 172
-0.526985 3.194937 -1.166196 125 129 124
-0.521628 3.214654 -1.174604 152 156 157
-0.715803 1.505097 0.005840 146 153 148
-0.524803 3.244000 -1.199635 98 102 77
-0.542448 3.136785 -1.131007 39 43 37
-0.542448 3.136785 -1.131007 39 43 37
-0.510235 3.356618 -1.267410 153 156 134
-0.545575 3.162122 -1.139989 82 86 80
-0.527948 3.246816 -1.186911 181 179 145
-0.517968 3.310364 -1.223386 157 159 147
-0.514477 3.409564 -1.297413 162 160 120
-0.714053 1.431122 0.102421 74 82 82
-0.520014 3.335774 -1.240330 155 158 133
-0.556434 3.180459 -1.146733 38 42 31
-0.556434 3.180459 -1.146733 38 42 31
-0.550307 3.219353 -1.170321 171 169 135
-0.560147 3.165021 -1.136472 176 175 149
-0.551165 3.239152 -1.169545 64 59 44
-0.508681 3.517467 -1.346841 108 110 98
-0.551874 3.260500 -1.182803 44 45 25
-0.524639 3.493429 -1.336559 22 24 18
-0.892764 1.627364 -0.211552 136 123 79
-0.530058 3.485798 -1.327172 170 168 150
-0.577258 3.215443 -1.155904 155 159 123
-0.531643 3.477296 -1.318310 164 165 125
-0.566634 3.263518 -1.177686 160 158 127
-0.574877 3.254178 -1.171152 56 56 42
-0.543924 3.427817 -1.279022 143 147 111
-0.532302 3.508681 -1.321527 35 39 14
-0.551008 3.491889 -1.319007 31 35 30
-0.542983 3.489983 -1.304901 145 147 128
-0.565969 3.395898 -1.248236 63 65 59
-0.571559 3.340040 -1.207162 153 155 136
-0.557663 3.506106 -1.325497 43 51 28
-0.884830 1.495877 -0.025496 159 159 159
-0.580713 3.354425 -1.211937 83 90 83
-0.962136 1.479730 -0.060525 61 59 59
-1.000991 1.428999 0.000920 89 83 76
-1.012598 1.425103 0.010154 255 255 242
-1.013776 1.451883 0.004729 255 255 255
1.591640 0.071721 -1.475427 103 99 104
1.591640 0.071721 -1.475427 103 99 104
1.603323 2.206302 -2.533416 168 160 137
1.586023 1.971898 -2.405901 255 255 255
1.577097 1.975743 -2.400973 129 130 120
1.583455 0.119883 -1.394403 55 53 53
1.522756 0.205442 -1.525370 185 179 150
1.550722 2.081226 -2.420159 122 123 121
1.543903 2.253220 -2.492758 124 125 115
1.543903 2.253220 -2.492758 124 125 115
1.510672 2.236328 -2.483682 97 94 96
1.514902 2.269063 -2.465522 164 165 163
1.505833 2.102596 -2.385379 157 163 170
1.506372 0.265571 -1.351643 126 128 108
1.491717 1.969004 -2.316087 132 134 134
1.491300 2.072232 -2.360564 168 171 176
1.556869 0.289903 -1.155232 58 59 50
1.431823 0.429050 -1.549772 126 112 76
1.478627 2.208154 -2.390750 112 115 120
1.478627 2.208154 -2.390750 112 115 120
1.444814 0.524358 -1.497594 81 72 34
1.458553 1.998980 -2.285189 114 113 115
1.438260 0.502518 -1.480305 81 65 23
1.404094 1.505360 -2.136003 131 123 100
1.498746 0.329542 -1.217781 100 106 95
1.453046 2.086593 -2.324791 109 111 111
1.520690 0.327282 -1.138605 76 82 59
1.412346 1.527567 -2.095711 163 162 164
1.384226 1.304263 -2.036087 128 132 56
1.455056 2.014922 -2.255423 124 126 126
1.385709 1.294478 -2.017153 114 120 85
1.436770 1.899968 -2.233298 138 140 140
1.447951 2.254439 -2.396164 112 114 114
1.447951 2.254439 -2.396164 112 114 114
1.436794 0.724333 -1.545289 182 189 204
1.439685 2.176427 -2.355528 168 172 173
1.438702 2.051632 -2.281292 174 173 175
1.434448 0.645493 -1.482016 150 150 150
1.380037 1.348394 -1.988582 69 70 66
1.380037 1.348394 -1.988582 69 70 66
1.427748 0.672090 -1.475792 53 53 53
1.415535 2.169126 -2.368480 113 118 119
1.406528 1.492836 -1.999768 132 127 129
1.406528 1.492836 -1.999768 132 127 129
1.362650 1.189896 -1.933863 83 84 34
1.422066 0.570808 -1.419514 107 100 50
1.379348 0.723160 -1.612483 44 42 48
1.358889 1.156313 -1.914626 169 171 149
1.415979 2.078534 -2.295467 89 92 97
1.406899 0.599446 -1.450178 116 115 117
1.414799 0.687232 -1.480419 133 136 141
1.402829 0.615093 -1.467947 120 121 125
1.348151 0.752545 -1.675636 103 92 18
1.406305 1.976283 -2.220325 96 100 105
1.338958 0.767282 -1.670091 152 150 139
1.420442 0.572582 -1.350305 184 173 115
1.345382 1.115537 -1.852668 181 182 173
1.391951 1.803847 -2.137127 138 136 136
1.483810 0.425457 -1.083904 129 133 122
1.483810 0.425457 -1.083904 129 133 122
1.335916 0.789655 -1.665367 147 148 139
1.414071 0.602189 -1.356192 138 136 105
1.381831 0.747520 -1.514273 35 37 45
1.359504 0.774508 -1.585347 117 119 127
1.472555 0.490295 -1.123285 148 152 117
1.368774 0.620291 -1.461006 121 122 126
1.344473 0.919511 -1.690622 102 102 42
1.335394 0.805812 -1.635780 43 45 46
1.371178 1.270311 -1.816894 197 194 189
1.364757 0.779565 -1.542183 132 137 146
1.364073 0.809796 -1.555766 146 144 150
1.364073 0.809796 -1.555766 146 144 150
1.413280 0.601346 -1.307435 194 184 144
1.369559 0.746300 -1.501921 41 44 49
1.477778 0.456254 -1.044963 83 88 86
1.359874 0.800675 -1.540761 18 17 21
1.356869 1.132496 -1.731258 162 162 156
1.357873 0.781582 -1.520375 20 24 49
1.352768 0.847739 -1.551774 118 124 131
1.348949 0.808058 -1.528395 134 142 159
1.345038 0.909837 -1.583378 66 72 79
1.346549 1.041147 -1.655148 138 145 154
1.394955 0.643106 -1.287702 164 163 165
1.338555 1.162213 -1.712426 137 137 137
1.356915 -0.221829 -0.834158 139 127 63
1.356915 -0.221829 -0.834158 139 127 63
1.330782 0.687888 -1.431278 133 131 131
1.486250 0.496963 -0.917222 106 113 92
1.354045 -0.189333 -0.825172 176 165 113
1.330648 1.296033 -1.773357 132 135 140
1.349268 2.176653 -2.255605 132 131 133
1.300893 0.710022 -1.441203 154 152 152
1.333749 -0.172422 -0.810502 94 85 35
1.311818 0.697453 -1.391992 53 56 60
1.311818 0.697453 -1.391992 53 56 60
1.324325 -0.170979 -0.822547 110 113 63
1.333774 -0.161847 -0.792968 147 141 100
1.382463 0.588310 -1.110543 116 114 84
1.299648 1.265489 -1.692673 134 133 137
1.312006 -0.146970 -0.778490 68 71 32
1.255714 -0.185491 -0.877146 104 95 51
1.349342 0.722731 -1.188771 92 94 95
1.263966 -0.048093 -0.924101 131 136 115
1.371042 0.617847 -1.064598 115 114 86
1.274949 0.823962 -1.414480 129 124 121
1.443928 0.596413 -0.852755 42 46 34
1.291458 -0.153505 -0.740479 83 79 31
1.257172 -0.029614 -0.897001 94 98 69
1.294483 0.771025 -1.295754 139 141 142
1.261615 0.802157 -1.392243 154 152 151
1.317381 2.415274 -2.242557 115 120 123
1.449309 0.614442 -0.794571 43 51 41
1.256121 0.808038 -1.381334 59 64 65
1.256121 0.808038 -1.381334 59 64 65
1.377059 0.772444 -1.060705 188 184 166
1.210825 -0.135941 -0.895941 106 104 63
1.211547 -0.113346 -0.853414 66 63 48
1.283209 -0.050450 -0.706627 75 68 51
1.287054 1.925899 -1.935536 126 128 129
1.255322 -0.208222 -0.654289 255 254 251
1.208906 -0.046489 -0.826264 156 157 101
1.433895 0.686256 -0.707562 116 122 111
1.433895 0.686256 -0.707562 116 122 111
1.242247 1.101137 -1.429782 119 118 120
1.253354 1.635266 -1.734704 180 180 180
1.377893 0.730736 -0.851666 76 73 35
1.219054 -0.114312 -0.696050 43 34 20
1.249717 1.677165 -1.754905 135 134 138
1.249717 1.677165 -1.754905 135 134 138
1.216833 -0.228275 -0.617672 117 105 51
1.428675 0.772674 -0.731493 138 142 107
1.245172 0.900875 -1.254655 80 80 80
1.245172 0.900875 -1.254655 80 80 80
1.219555 -0.188931 -0.620029 57 43 25
1.266953 0.866343 -1.150485 151 155 156
1.266953 0.866343 -1.150485 151 155 156
1.212685 -0.173884 -0.613234 169 153 106
1.212685 -0.173884 -0.613234 169 153 106
1.223272 1.014153 -1.343938 178 176 175
1.206109 -0.152884 -0.603569 91 69 41
1.241145 0.907487 -1.196130 110 111 115
1.218665 1.015669 -1.319813 175 177 178
1.227097 0.138833 -0.729144 43 36 19
1.231263 1.019522 -1.275031 94 95 99
1.415013 0.743287 -0.618072 126 130 118
1.227526 1.057310 -1.231463 104 107 112
1.236888 0.958044 -1.126635 106 107 111
1.153923 -0.125819 -0.592843 55 40 14
1.154661 -0.130879 -0.576042 54 41 25
1.398554 0.852047 -0.621946 48 48 34
1.128100 -0.254848 -0.539081 74 64 34
1.139531 -0.137805 -0.581201 168 154 101
1.120407 -0.218630 -0.549199 172 158 92
1.223938 0.981449 -1.086075 110 112 113
1.223938 0.981449 -1.086075 110 112 113
1.320521 0.841306 -0.755144 50 45 20
1.197505 1.090951 -1.207549 177 175 174
1.072718 -0.345082 -0.536154 60 47 31
1.220326 1.013231 -1.077397 183 179 178
1.165482 0.088505 -0.543382 189 188 128
1.093393 -0.173952 -0.497556 169 153 94
1.050048 -0.376651 -0.448848 125 115 98
1.315475 0.901167 -0.675072 36 32 8
1.074468 -0.247196 -0.468873 44 38 19
1.399533 0.876342 -0.437557 117 121 110
1.244635 1.032702 -0.905567 78 80 74
1.076828 -0.163807 -0.468650 67 57 47
1.044759 -0.338308 -0.417235 71 67 38
1.056663 -0.107307 -0.543839 28 22 17
1.303370 0.945011 -0.659345 168 162 121
1.309048 0.945651 -0.612424 41 40 12
1.400720 0.925287 -0.378374 114 118 106
1.052883 -0.122137 -0.483169 138 132 87
1.025604 -0.290665 -0.384921 184 164 99
1.027372 -0.318127 -0.359457 113 96 40
1.219930 1.135066 -0.888947 116 115 105
1.219930 1.135066 -0.888947 116 115 105
1.153424 0.215823 -0.418056 144 149 117
1.012470 -0.378164 -0.339041 178 160 97
0.825139 -1.406148 -0.064157 104 85 42
1.221861 2.251329 -1.626111 193 185 192
1.128660 -1.764892 0.899993 116 98 45
1.219740 1.083224 -0.817256 82 84 78
1.145529 -1.641170 0.878679 111 105 58
0.989154 -0.472062 -0.273906 45 38 29
1.217252 2.270332 -1.615465 146 137 140
1.059911 -1.983385 0.939119 125 104 49
0.984978 -0.469990 -0.257858 46 43 28
0.996102 -0.279425 -0.357125 99 80 42
1.055139 -1.954869 0.937497 142 132 85
0.825881 -1.340653 -0.009754 120 102 85
1.300480 1.134069 -0.600020 78 81 42
1.101071 -1.611375 0.835346 119 104 65
1.096565 -1.681217 0.874051 65 50 17
1.096565 -1.681217 0.874051 65 50 17
1.096565 -1.681217 0.874051 65 50 17
1.170744 1.282268 -0.993786 184 176 169
0.877281 -1.082375 -0.035379 102 81 59
1.003952 -0.074211 -0.435203 63 49 30
1.371596 0.991310 -0.306178 101 104 102
0.996581 -0.091865 -0.425930 141 125 79
1.194970 1.230003 -0.877716 182 176 171
0.860291 -1.473820 0.219237 104 75 30
0.831203 -1.335918 0.060868 49 39 22
1.209750 2.290683 -1.556072 139 134 135
1.027545 -1.918748 0.941858 31 32 30
0.992901 -2.092998 0.983860 141 110 65
0.860182 -1.105677 -0.003108 180 161 126
1.212000 2.327222 -1.567332 128 124 129
0.857232 -1.407563 0.213487 25 19 6
0.882848 -0.995413 -0.012220 90 74 51
0.954276 -0.459385 -0.218427 87 77 37
1.065120 -2.268265 1.303701 124 117 48
1.060490 -1.400439 0.691185 44 37 28
1.207448 2.327990 -1.557816 187 182 183
0.812492 -1.266652 0.029988 155 144 112
1.039007 -1.533976 0.745714 45 39 34
1.015924 -1.842364 0.912188 27 27 27
1.285696 1.050540 -0.477754 107 101 72
1.029426 -1.649489 0.814599 25 20 21
0.960371 -0.169590 -0.371927 72 60 12
0.960371 -0.169590 -0.371927 72 60 12
0.837181 -1.166133 0.043581 64 50 28
0.944122 -0.239141 -0.353980 194 175 100
0.956021 -0.334002 -0.260468 167 146 78
1.060080 -1.348742 0.686218 51 49 39
0.842874 -1.105424 0.019236 172 150 108
1.026639 -1.567398 0.770442 42 35 26
1.297847 1.161768 -0.496439 177 169 129
1.162774 1.313551 -0.913133 76 79 77
0.808273 -1.222023 0.053560 41 28 14
1.034238 -1.430411 0.728673 52 43 29
1.160606 1.314119 -0.898982 174 172 171
1.150593 -2.231130 1.565038 154 143 105
0.889012 -0.853569 0.007789 142 127 78
1.159572 -2.303624 1.646155 85 79 42
0.899911 -0.452913 -0.244485 106 104 46
1.015688 -1.280058 0.601408 126 129 107
1.015688 -1.280058 0.601408 126 129 107
0.823379 -1.109579 0.045236 50 41 32
0.799442 -1.207077 0.060263 114 105 95
0.801038 -1.485370 0.263910 78 66 32
1.290092 1.198274 -0.493736 136 134 99
0.822470 -1.424006 0.273640 137 121 78
1.015019 -1.450715 0.736469 127 119 79
1.013269 -1.427464 0.722623 126 121 90
0.800699 -1.146964 0.057108 32 25 22
0.987618 -1.634468 0.831565 77 73 62
